x	y	z
1.405055703	3.688740984	0.615656877
1.342081547	2.617019627	0.434458832
1.402196431	2.999085541	0.456392938
1.394923123	3.292457215	0.458192725
1.387898724	3.637970684	0.461679641
1.333683069	2.576807535	0.886853191
1.40575612	2.988221469	0.970436083
1.414442446	3.327725371	1.023797153
1.334259188	2.580016103	0.766345205
1.402694829	2.981713989	0.833684797
1.409383901	3.308924133	0.872960387
1.410193	3.684088646	0.917249328
1.331829894	2.577192336	0.650413374
1.386460244	2.94546883	0.695831648
1.41314866	3.314393165	0.733578972
1.417219382	3.694909644	0.76687189
1.33430375	2.581979679	0.539398412
1.391394801	2.954881322	0.573195336
1.40194277	3.28572629	0.591777429
1.409275311	3.665967859	0.612574721
1.339659281	2.592675882	0.431097727
1.375493812	2.918601032	0.444785112
1.400730475	3.278128872	0.456794638
1.396555628	3.627208462	0.460855427
1.345561913	2.580335409	0.88948396
1.407928947	2.969157253	0.965643153
1.417442211	3.306567655	1.018620965
1.341721467	2.575053146	0.766090098
1.404774673	2.962505115	0.829515153
1.398433437	3.25547562	0.859987493
1.411310406	3.653396253	0.910681374
1.336125269	2.566170303	0.648663202
1.388364	2.92618184	0.692278317
1.393504944	3.240726471	0.718217125
1.415790372	3.657584817	0.760023136
1.341310723	2.576129805	0.539033453
1.392851719	2.934582255	0.570083914
1.399148189	3.25150464	0.586384224
1.404434439	3.620174577	0.6056399
1.338014059	2.570126527	0.42802892
1.377640324	2.900050589	0.442600096
1.406463155	3.263796095	0.455396552
1.389334951	3.575699668	0.454850408
1.34020401	2.574333202	0.321032058
1.273946269	2.679593209	0.298605448
1.158090623	2.684722154	0.266811685
0.994989773	2.557080071	0.224379503
1.355990965	2.601885042	0.216439754
1.297844666	2.728877962	0.193927134
1.35569591	2.580427921	0.890945465
1.401723489	2.932795085	0.95521133
1.403907825	3.247446368	1.001730201
1.355457875	2.582054058	0.7694065
1.397970908	2.924943302	0.820194716
1.398757253	3.228877161	0.854090687
1.413667962	3.62636177	0.90501935
1.345805011	2.565515455	0.649538259
1.391850248	2.910439716	0.689561059
1.392525183	3.21126385	0.712630979
1.413074395	3.617560478	0.752603611
1.349207874	2.572002546	0.539033453
1.385271021	2.895643452	0.563342508
1.389480548	3.20194585	0.578212783
1.411932475	3.606648257	0.604098823
1.331648084	2.538851334	0.42349873
1.378830538	2.879727577	0.440141971
1.396307817	3.213070724	0.448914486
1.406823411	3.588061895	0.45696983
1.347634004	2.569329159	0.320922117
1.288610636	2.689131207	0.300107484
1.157979563	2.661979419	0.264903293
1.007929876	2.567003379	0.225520559
1.367212448	2.603893542	0.216954724
1.307504734	2.727583104	0.194119269
1.362264039	2.573720972	0.890068562
1.404052445	2.914650754	0.950700328
1.40348235	3.219310012	0.994374514
1.363373104	2.577883638	0.769406502
1.3981025	2.902299381	0.815043981
1.397764112	3.199636137	0.847486255
1.414803287	3.596628001	0.898677832
1.353669594	2.561374479	0.649538259
1.386760823	2.877085661	0.682663315
1.394126019	3.188122498	0.708441369
1.416606208	3.594027889	0.74860849
1.354795275	2.563504635	0.538121083
1.392436996	2.88783097	0.562651035
1.393364936	3.184110884	0.575761363
1.407018587	3.561865608	0.597318139
1.345439492	2.546124422	0.425398479
1.291216036	2.675636363	0.409551913
1.397798354	3.189693725	0.446245391
1.398827827	3.535711948	0.450847063
1.347151538	2.5493644	0.318943153
1.273055224	2.635887945	0.294600015
1.02791529	2.594476793	0.228210174
1.369132333	2.588226695	0.215998337
1.305881649	2.702891835	0.192646245
1.369703739	2.568685579	0.88977626
1.407121334	2.898246424	0.94675319
1.396314819	3.176232974	0.982387543
1.413234849	3.572167136	1.048194872
1.37309415	2.577101882	0.770426931
1.393874249	2.870961328	0.807440515
1.40052221	3.179325143	0.843240615
1.411098384	3.55515292	0.889392144
1.363355749	2.560654834	0.650413375
1.392589897	2.866660137	0.681200197
1.398760811	3.172174548	0.705847849
1.417830162	3.565034419	0.74347194
1.3612675	2.55673267	0.537573618
1.384931055	2.849881964	0.556082483
1.397949523	3.168087504	0.573636756
1.405135636	3.525407924	0.591924395
1.355568854	2.546350849	0.426129143
1.276021312	2.623556371	0.402177507
1.399158563	3.166337796	0.443576324
1.403041927	3.514802612	0.44872764
1.369445619	2.572417553	0.322351348
1.284619701	2.639126832	0.295401102
1.192419348	2.695807758	0.268992709
1.379880675	2.589294741	0.216439754
1.316789155	2.704256214	0.193030502
1.377125363	2.563628964	0.88948396
1.400404204	2.862029301	0.936321424
1.402543505	3.164017602	0.979935762
1.409165883	3.53018322	1.037139046
1.38236595	2.575433216	0.771192257
1.386058274	2.832710132	0.797874861
1.399224161	3.150145999	0.836636182
1.411135492	3.523680776	0.88259769
1.371666511	2.557319764	0.650632123
1.388048011	2.835147014	0.674720517
1.400126243	3.149065058	0.701658238
1.407190559	3.506911541	0.732247551
1.371893393	2.557742958	0.538668494
1.39713364	2.852696156	0.557465313
1.396834321	3.139446858	0.569224165
1.403042434	3.488995407	0.586530651
1.360101753	2.536077364	0.425106207
1.263571519	2.577821955	0.39575907
1.404829347	3.152970027	0.442305315
1.399350233	3.474556923	0.444135579
1.362299001	2.54017457	0.318833212
1.283069859	2.615521052	0.293198114
1.212853434	2.719421752	0.271718994
1.045306461	2.591818224	0.228536197
1.38593105	2.581534435	0.216145471
1.320683116	2.691244745	0.192390064
1.388625057	2.566120441	0.89182237
1.373959365	2.786297899	0.912920402
1.402035866	3.136860587	0.972852467
1.411340052	3.504366065	1.030821546
1.389340989	2.56947899	0.770682041
1.384881069	2.808446275	0.79223358
1.402129634	3.130761151	0.832626398
1.410263187	3.490436075	0.875350302
1.381825077	2.557391953	0.651725989
1.387220339	2.811581861	0.670122078
1.398957972	3.120612439	0.696271589
1.413890702	3.492567892	0.730154891
1.378799181	2.551791933	0.538303535
1.372312221	2.780388049	0.544155296
1.405247969	3.132446353	0.568733858
1.395910304	3.44072715	0.579133536
1.363643969	2.52405941	0.423791001
1.2802491	2.591696778	0.398490305
1.414089383	3.147740523	0.442178237
1.393929695	3.430687378	0.439072522
1.372920355	2.541229887	0.319492857
1.289324321	2.608004777	0.292797571
1.216289686	2.704788965	0.270628497
1.152042634	2.83139559	0.249971651
1.39953769	2.587797006	0.217028306
1.322740089	2.67465683	0.191493432
1.399695289	2.56772595	0.893868537
1.337670228	2.691854238	0.883316743
1.400189104	3.107105098	0.964951989
1.409374476	3.468737578	1.021608338
1.398605016	2.567751697	0.771447363
1.376665284	2.770325802	0.782667871
1.406129173	3.114045221	0.829324182
1.415817971	3.473465669	0.872179516
1.387332038	2.548855344	0.650632124
1.3605735	2.736385542	0.65319132
1.39803191	3.093089958	0.691084494
1.41086532	3.454585848	0.723115881
1.391791977	2.557049233	0.540310781
1.351885708	2.717960539	0.532746727
1.413631904	3.125423756	0.568243608
1.404962783	3.432770571	0.578517105
1.391242577	2.556358733	0.429928671
1.294374789	2.6001722	0.400402183
1.42046596	3.136159157	0.441161442
1.390687901	2.555339379	0.321801643
1.284452765	2.578210263	0.289893632
1.223348568	2.698323776	0.270355866
1.149748503	2.801109219	0.247608058
1.405084784	2.579112209	0.216660455
1.409867805	2.567611023	0.895330044
1.345063194	2.686021725	0.88275288
1.40135699	3.084398738	0.959230898
1.411960227	3.444759007	1.015817154
1.410662177	2.571078168	0.773743336
1.322216093	2.640397285	0.74710321
1.406415671	3.089374512	0.823899147
1.415725733	3.442981542	0.865611561
1.400774701	2.55485442	0.653257411
1.333916786	2.662254283	0.636469654
1.403884455	2.560526288	0.541953066
1.342122964	2.677698383	0.525659557
1.385763293	2.527789354	0.425836872
1.317448125	2.626294943	0.405045326
1.426784821	3.124568339	0.440144647
1.401865634	2.55716177	0.322571258
1.332979961	2.655175365	0.299005991
1.248180707	2.730787183	0.273990885
1.172825613	2.832561214	0.250705176
1.411551418	2.572166481	0.216439754
1.419589883	2.566620854	0.896499248
1.324770651	2.625349856	0.86414485
1.398792525	3.053841772	0.951057969
1.413674955	3.419014301	1.009499654
1.422752777	2.574354576	0.776039306
1.323759287	2.62334569	0.743424112
1.396835662	3.043534199	0.812813159
1.410981755	3.401734566	0.856325871
1.411908466	2.556524069	0.654788833
1.349130205	2.672116504	0.639814009
1.397758625	3.042603292	0.681707732
1.397751194	3.363366342	0.705803713
1.416011454	2.5639533	0.543595353
1.405173478	3.056633831	0.557293818
1.397509793	3.355676398	0.566959107
1.396859423	2.529588097	0.426859836
1.325499325	2.622240632	0.405045325
1.361704808	2.957995514	0.417266775
1.416271589	3.395716153	0.436246636
1.409704276	2.552848973	0.322571258
1.175748672	2.815154435	0.249482625
1.421365889	2.571315011	0.216734022
1.430715466	2.568101408	0.898545414
1.314989881	2.58620887	0.852585362
1.405331438	3.043420973	0.949150975
1.402618952	3.363018159	0.994232046
1.432525297	2.573356857	0.777059738
1.326968092	2.609766453	0.740726109
1.426386121	2.564118433	0.657851677
1.336480866	2.626999678	0.629989973
1.432474408	2.575062898	0.54687987
1.358527726	2.669412901	0.525659557
1.429137804	2.569381498	0.434312711
1.343429437	2.637581727	0.408049698
1.448017612	3.120253484	0.440780151
1.421291867	3.37854037	0.43459821
1.43009132	2.57109586	0.325429748
1.37906928	2.705452083	0.305614954
1.282114211	2.760107395	0.277716802
1.189796885	2.824393183	0.250623667
1.435069648	2.577398225	0.217616856
1.355462594	2.658223322	0.191493432
1.44607531	2.57704397	0.903222293
1.323793015	2.583869957	0.853149221
1.404104794	3.01641534	0.942067739
1.403577745	3.336467968	0.987651217
1.442777939	2.573166663	0.778335276
1.334526506	2.604820146	0.740480835
1.410242487	3.341861998	0.843416401
1.43567682	2.562284067	0.658507984
1.338288671	2.610703878	0.627063683
1.442770863	2.574944671	0.547792296
1.344239538	2.621410868	0.517016704
1.433145676	2.558080628	0.433143626
1.349705809	2.629922397	0.407503451
1.457163366	3.114897792	0.440653044
1.39790523	3.294632044	0.424354348
1.437972568	2.566696349	0.325429748
1.382817179	2.692357845	0.304613596
1.285508323	2.745338191	0.276626304
1.213656329	2.856504723	0.253802323
1.441019046	2.569503952	0.217322574
1.458680285	2.580920842	0.906145306
1.333034267	2.582354076	0.853995012
1.39536878	2.97376734	0.93008077
1.410792812	3.325041446	0.985545384
1.453042817	2.572937842	0.779610816
1.339843579	2.595544896	0.739009196
1.399567249	2.976903527	0.798425016
1.407138039	3.306152045	0.835489578
1.444010695	2.558717127	0.658726734
1.335072901	2.584864224	0.621838145
1.392740952	2.95956601	0.66594689
1.403232328	3.290757096	0.693247636
1.445348248	2.56108735	0.54578505
1.347754457	2.608523886	0.515288111
1.421057645	3.017687918	0.552554356
1.41668819	3.315414625	0.562335875
1.449251821	2.568318285	0.435627918
1.351852692	2.614329742	0.405728155
1.3723728	2.910348695	0.412309904
1.383393678	3.232810914	0.4169364
1.449259589	2.568331965	0.326199334
1.295625127	2.744983853	0.276989803
1.224376956	2.857348246	0.254209839
1.452328788	2.571149316	0.217837558
1.470376248	2.583082509	0.908483775
1.340065169	2.576550009	0.853431153
1.393789475	2.946857866	0.922997534
1.402769412	3.278124473	0.972910154
1.464276103	2.574351246	0.781396573
1.345563614	2.587121776	0.737782831
1.399122058	2.952397832	0.79299998
1.409590828	3.283918538	0.830959924
1.458122255	2.565303009	0.661570827
1.337128251	2.569478781	0.619120887
1.402654129	2.957049972	0.666345885
1.405564673	3.268399143	0.689442774
1.462430026	2.572881743	0.549252074
1.333465869	2.56156741	0.50681811
1.427347717	3.007075171	0.551410363
1.41551336	3.284738515	0.557866778
1.456635636	2.562999866	0.435481796
1.377037238	2.89716611	0.411038924
1.390157371	3.221257573	0.415994438
1.460078935	2.569058515	0.326859008
1.463168943	2.571882523	0.218278975
1.483050506	2.586855634	0.911406786
1.347963583	2.572426565	0.853431152
1.399511249	2.93561968	0.920818089
1.401734593	3.248118115	0.965276465
1.47937662	2.58243178	0.785223191
1.349444759	2.575253056	0.735575371
1.402309404	2.935815072	0.789697764
1.395669216	3.224158972	0.816918082
1.469863898	2.567592118	0.663320998
1.34682138	2.56882883	0.619956962
1.39439015	2.916486679	0.658166162
1.399960731	3.228044245	0.68183299
1.473735968	2.574355963	0.550529402
1.415345093	3.256819566	0.553860033
1.469406371	2.567104489	0.436943124
1.379919389	2.880404216	0.409259516
1.40003357	3.216977528	0.415994439
1.473385197	2.574055651	0.328068357
1.477993764	2.57949581	0.219308943
1.490501803	2.581465358	0.911114486
1.358984833	2.574218059	0.855404721
1.404760579	2.923506774	0.918366192
1.402068719	3.221687377	0.958695577
1.490191644	2.58290604	0.786753838
1.35869692	2.573672832	0.73631119
1.401192813	2.910484544	0.78403687
1.395812344	3.197545141	0.811256057
1.483095504	2.572369367	0.665727479
1.348758441	2.553443689	0.617239704
1.480644966	2.568119025	0.550164444
1.356060502	2.56640016	0.509410974
1.337788985	2.774323959	0.510226176
1.475792956	2.560013231	0.436504731
1.371226174	2.593019703	0.404362524
1.367616783	2.832389535	0.403031665
1.407502181	3.207211088	0.415287974
1.482764574	2.572106722	0.328398208
1.367816081	2.584605884	0.294299607
1.216140123	2.767486973	0.247200541
1.485900618	2.574949301	0.219308943
1.383471486	2.613305436	0.189764227
2.211344483	4.16971951	-0.042342517
1.502741108	2.584321	0.913745256
1.368678018	2.573425094	0.856532501
1.407432482	2.906193751	0.914279756
1.401478682	3.193518862	0.951588261
1.502966556	2.586682388	0.789304975
1.370228285	2.576339814	0.738273377
1.402903746	2.891309071	0.780027029
1.399729593	3.179875889	0.807858833
1.492450281	2.570338575	0.666383842
1.355667174	2.547567186	0.616821638
1.49444126	2.573767501	0.552354196
1.366241798	2.566574862	0.510275241
1.285922225	2.645982218	0.487346099
1.4866203	2.560606702	0.437381546
1.35914647	2.551205724	0.398490305
1.363279163	2.801423757	0.399218696
1.409699925	3.185623946	0.413050804
1.497136296	2.578719908	0.329827439
1.372462372	2.574251582	0.293598657
1.328340589	2.727087316	0.27680804
1.229873862	2.775588828	0.248260074
1.490786819	2.565205055	0.218867526
1.395709036	2.616973707	0.190340634
2.205749329	4.128518616	-0.041992653
1.510662611	2.579698384	0.913745255
1.375207423	2.566676918	0.855686653
1.385955561	2.839605358	0.894664702
1.4061946	3.177735296	0.948166239
1.514313662	2.587900735	0.791090728
1.377210197	2.570414921	0.737782831
1.401948805	2.866912514	0.774601993
1.50229916	2.56911721	0.6672589
1.365324806	2.546843649	0.617657714
1.387572248	2.834879824	0.642604819
1.502330475	2.569170426	0.552354196
1.371316582	2.557163029	0.509238118
1.495967055	2.558595703	0.437819938
1.368372393	2.549642563	0.398899997
1.45310498	2.962871137	0.422859151
1.434033495	3.213931225	0.417289647
1.502532266	2.569824463	0.329277735
1.384120012	2.57704111	0.294399744
1.23065882	2.754512876	0.246711515
1.561114496	2.667347577	0.227990062
2.247787782	4.176324908	-0.042548846
1.527314019	2.589879148	0.919006736
1.391278143	2.577643007	0.86076157
1.375974706	2.797351187	0.882677673
1.397068372	3.131117584	0.935531066
1.526173229	2.589907037	0.793131592
1.386471074	2.56873676	0.738518649
1.368639041	2.777173331	0.751486597
1.405686898	3.140999929	0.800158507
1.518096314	2.577949007	0.6707593
1.378243463	2.552107784	0.619956961
1.37545557	2.78842709	0.633028616
1.509207595	2.562854832	0.551989237
1.417359923	2.867699843	0.409895022
1.4540724	3.232156828	0.420233281
1.603218302	2.720109578	0.232919187
2.2605901	4.169409187	-0.042548846
1.537694036	2.58929266	0.920468244
1.399179736	2.573362466	0.86076157
1.353355282	2.730185165	0.862790223
1.404293203	3.121538011	0.933951663
1.533618222	2.5843812	0.792876484
1.396197647	2.567878049	0.739499743
1.323985923	2.665907137	0.722474393
1.406503516	3.117140335	0.795175915
1.522514218	2.567404515	0.669227879
1.383262781	2.54271325	0.618702821
1.334715329	2.685040761	0.610484533
1.397550626	3.09168344	0.657481811
1.515057233	2.554829784	0.551259319
1.394514038	2.562542994	0.512003835
1.298796939	2.611068601	0.483096942
1.415808565	3.125821803	0.535213078
1.514665428	2.554474082	0.438696752
1.39062423	2.553378049	0.400811876
1.362472016	2.735486477	0.39159273
1.429115263	3.150809619	0.410224917
1.405620196	2.578983456	0.295601373
1.260313197	2.775041488	0.249238126
1.528076787	2.574530948	0.220853881
2.288708863	4.190537023	-0.042835914
1.550048129	2.591949591	0.923099012
1.406146308	2.567374842	0.86019771
1.314427918	2.631336912	0.832822737
1.390750546	3.066256986	0.918684111
1.547491668	2.589624002	0.795937779
1.409191915	2.572935472	0.742197747
1.405977096	3.090646035	0.789513835
1.535386553	2.571099089	0.671415608
1.399516324	2.553894022	0.622465242
1.407029189	3.087381222	0.657481811
1.524400536	2.552702256	0.55180673
1.398581697	2.551343116	0.510620949
1.3085698	2.610599558	0.483750628
1.524523931	2.553212704	0.439281295
1.398451318	2.549099654	0.400811876
1.334372856	2.658600822	0.381170589
1.388393159	3.036231714	0.395859988
1.412089349	2.572042299	0.295300965
1.536991413	2.571542623	0.221001015
2.297216469	4.175610532	-0.042755175
1.564406351	2.597832288	0.926898988
1.415870123	2.566409028	0.861325488
1.320764211	2.62385426	0.831733045
1.392528519	3.045306137	0.913682686
1.562907312	2.597291499	0.799764398
1.419888727	2.573693023	0.743669386
1.316251562	2.610010365	0.709501444
1.402865235	3.058872256	0.782492943
1.550810191	2.578919729	0.674697201
1.410180451	2.554725299	0.623719327
1.328645869	2.632187227	0.600309839
1.538811893	2.558967067	0.554178933
1.421161679	2.573769581	0.515979526
1.328582169	2.630348941	0.488163221
1.545094097	2.569718766	0.442934672
1.417285433	2.564739498	0.403952832
1.346999674	2.663345934	0.382441599
1.3989488	3.034663343	0.396213206
1.42334413	2.573792963	0.296001916
1.532016737	2.545453458	0.219161794
2.315832509	4.179038741	-0.042862825
1.585757247	2.615099202	0.934791181
1.429795529	2.572955537	0.864990698
1.316185603	2.594904894	0.82383251
1.394998941	3.026125358	0.909207746
1.57237154	2.594965182	0.800529722
1.430132491	2.573561755	0.744895751
1.399980562	3.028030991	0.775698491
1.563769175	2.582496742	0.676884932
1.420387716	2.554660381	0.624764436
1.56906331	2.591239761	0.562207858
1.404485958	3.022252253	0.395153495
1.562562032	2.578268239	0.222398833
2.328642789	4.171914348	-0.042862825
1.598258034	2.617567674	0.93742195
1.440494232	2.573579964	0.866682336
1.327205661	2.596851977	0.825739559
1.403056683	3.019206726	0.908418045
1.581836235	2.592605224	0.801295045
1.445597333	2.582697344	0.748820121
1.322940652	2.583720071	0.704548177
1.401857448	3.007830404	0.771621829
1.569144893	2.573521245	0.675791066
1.431085487	2.555409913	0.626018575
1.334939471	2.604800071	0.59592073
1.391775281	2.980897349	0.637506267
1.572910945	2.579698031	0.56074808
1.43885272	2.568438098	0.516670996
1.327589711	2.588788882	0.48195295
1.561347375	2.561034585	0.443080793
1.434449073	2.558587087	0.404362524
1.440290946	3.074582854	0.402571472
1.297235013	2.765682827	0.249808633
1.564230675	2.56324673	0.221515999
2.330650059	4.145574172	-0.042665467
1.609286331	2.617539867	0.939175757
1.454508335	2.580013446	0.870347545
1.326356315	2.575659598	0.82029092
1.400035448	2.988679214	0.900521026
1.588264423	2.585268255	0.80052972
1.454942515	2.580783668	0.749555941
1.32774222	2.573603835	0.702897069
1.394097797	2.967370966	0.762336082
1.577032953	2.568695165	0.675791067
1.334382434	2.584149734	0.592130116
1.383355464	2.939305776	0.629516026
1.589563093	2.589104468	0.563850145
1.400376754	2.969685243	0.512097027
1.442932505	3.055782065	0.400687547
1.596626609	2.59837157	0.224973739
1.618819383	2.615029839	0.940052719
1.467154111	2.583882243	0.873166907
1.335138385	2.573286331	0.820835766
1.395604427	2.95558183	0.891834307
1.598223003	2.583672609	0.801550152
1.466682813	2.583052089	0.751518126
1.33518358	2.568655833	0.702661211
1.392356301	2.940192447	0.756447562
1.596706999	2.582934451	0.680822888
1.38731731	2.924404035	0.627233109
1.400573636	2.94663495	0.508860792
1.40023472	2.941948183	0.386322591
1.605640251	2.595157045	0.225120873
1.628857992	2.613297252	0.941221923
1.48221883	2.591861843	0.877396034
1.343472621	2.570030926	0.82110822
1.398861076	2.939090818	0.888149069
1.612276301	2.588606027	0.804611447
1.477969478	2.584431207	0.753235039
1.345311966	2.568851968	0.703840551
1.398852633	2.930632639	0.755088693
1.60771764	2.582994247	0.682135503
1.471542289	2.571838046	0.63333433
1.391200716	2.909505691	0.624950191
1.388262487	2.897770669	0.501155462
1.616231063	2.594451162	0.225488723
2.213137835	4.198633294	-0.086657105
1.639409444	2.612337807	0.942683429
1.490642473	2.588133645	0.877677964
1.352696072	2.568451138	0.821925519
1.399526107	2.917388965	0.882884372
1.619696802	2.582828455	0.804356341
1.485891425	2.579884667	0.753235038
1.353186737	2.564712487	0.70384055
1.399814072	2.909650483	0.750785536
1.617189063	2.580530121	0.68279181
1.477472618	2.563922056	0.632498254
1.386055214	2.876038889	0.618672152
1.61994388	2.582721527	0.224900172
1.648948808	2.609721307	0.943560334
1.500019872	2.58603788	0.878523754
1.365981255	2.574488359	0.825194656
1.3988114	2.893105078	0.876830029
1.633807694	2.587658093	0.807417635
1.502554959	2.590408559	0.757650012
1.364241692	2.56655543	0.705491657
1.404059614	2.895701719	0.748294242
1.624577678	2.574731211	0.682573059
1.490240174	2.567835204	0.63458847
1.362311549	2.560659388	0.590534081
1.394443308	2.870889835	0.618481894
1.509855106	2.598811917	0.41433161
1.629989969	2.581112518	0.225194455
2.236028895	4.179684803	-0.086547573
1.66002741	2.609491563	0.9453142
1.508914559	2.583080688	0.879087673
1.373873216	2.570285509	0.825194657
1.389931454	2.852375585	0.86577426
1.649519579	2.59487331	0.811244252
1.510006202	2.584949341	0.757404681
1.375779266	2.569211632	0.707378623
1.401818145	2.868627583	0.742405721
1.636131842	2.575500466	0.684104482
1.504032546	2.573382478	0.637096694
1.375619981	2.810165703	0.606306334
1.537088736	2.629098518	0.534475265
1.48380255	2.536025356	0.405045326
1.635225518	2.57189152	0.224826605
1.676277799	2.617271438	0.949991078
1.520237622	2.584227851	0.881061242
1.387226316	2.576224277	0.82846385
1.369333111	2.788347625	0.847611118
1.656430382	2.588171753	0.810734037
1.52186209	2.586989328	0.759366923
1.389652906	2.576097164	0.710444925
1.351657527	2.744602723	0.711377805
1.64980891	2.579510992	0.686510961
1.514400733	2.572970002	0.638141803
1.359477688	2.755747556	0.595462403
1.56263773	2.65407693	0.540525313
1.486547127	2.5229262	0.403679694
1.63934471	2.560982993	0.224311621
1.690000363	2.620957374	0.953206393
1.533048872	2.587806378	0.883880662
1.392829671	2.567727517	0.827101705
1.665410324	2.584703348	0.811244253
1.532756414	2.587312688	0.760838563
1.399869626	2.57609098	0.71162432
1.659828071	2.577719093	0.687386077
1.52328463	2.569994286	0.638559869
1.580819577	2.666214839	0.543982443
1.493269356	2.516649643	0.403406584
1.650975571	2.561809654	0.224826605
1.702719683	2.622979329	0.955837161
1.549337069	2.597097868	0.88867359
1.398855427	2.560064752	0.826011954
1.680173005	2.5901272	0.814560656
1.542176936	2.585095684	0.761574381
1.410099395	2.576046187	0.712803657
1.670382506	2.57670846	0.68847994
1.535672907	2.572866022	0.64044105
1.362289567	2.719266205	0.589374622
1.59101166	2.664735234	0.544673858
1.508605055	2.524812438	0.405455017
1.747829628	2.696486601	0.355444054
1.647971148	2.539999899	0.22335522
1.712328376	2.620144874	0.956714067
1.559273893	2.595622108	0.889801369
1.414590131	2.570090971	0.830643295
1.690754929	2.589008083	0.815836194
1.555592148	2.589493587	0.764272386
1.418465271	2.572559118	0.713039516
1.682012964	2.577291855	0.690011363
1.59562677	2.653932513	0.543463881
1.518386911	2.523567486	0.406001264
1.662845907	2.545786604	0.224311621
1.722461366	2.618074733	0.957883271
1.57070583	2.596572698	0.891774939
1.426667306	2.573312487	0.833095191
1.707188633	2.596735911	0.819917921
1.56503458	2.587197393	0.765008205
1.426351039	2.568195155	0.713039515
1.693662646	2.577827771	0.691542783
1.552443478	2.565068244	0.640859117
1.605291705	2.651552404	0.543982442
1.520475364	2.509577397	0.404499078
1.681059172	2.556505226	0.225709424
1.729957246	2.611980732	0.95759097
1.58365564	2.599935577	0.894594358
1.4415921	2.581524338	0.837181684
1.327752577	2.602025434	0.797070371
1.713546322	2.589067097	0.819152596
1.575990601	2.587351408	0.766479844
1.434697859	2.564655174	0.713275428
1.328377662	2.596083586	0.678085038
1.709099533	2.584013685	0.69460557
1.608292248	2.638205039	0.54225385
1.541065588	2.526042899	0.407913143
1.691096414	2.554662268	0.226003707
1.737962649	2.606661051	0.957590971
1.595637693	2.60160756	0.896849858
1.452807167	2.582959849	0.839088676
1.32823016	2.583354142	0.792595375
1.732203828	2.599891402	0.824254756
1.588989631	2.590768156	0.768932575
1.44303641	2.561088255	0.713511285
1.33008728	2.579875642	0.674914307
1.606363364	2.614997425	0.423071618
1.701138243	2.552781626	0.22629799
1.74595152	2.601316742	0.95759097
1.605628235	2.599965244	0.897977636
1.476375365	2.606117192	0.848078904
1.338368258	2.58355012	0.793911563
1.739094936	2.592958716	0.82374454
1.596930493	2.585880998	0.768932575
1.456642535	2.566791057	0.716341731
1.340240998	2.580104546	0.676046734
1.733071825	2.58563652	0.697887222
1.5811262	2.55899054	0.642949276
1.458136557	2.567231305	0.601107827
1.348557074	2.591799919	0.56616493
1.724379609	2.572668118	0.574798684
1.595450911	2.581368459	0.532573875
1.467745987	2.582575169	0.492085561
1.346403962	2.582925676	0.454306985
1.588323368	2.567932009	0.416243488
1.355940799	2.597901601	0.347466621
1.698961661	2.532642868	0.224973739
1.757136308	2.600702351	0.959344776
1.616637054	2.599915529	0.899669275
1.484363822	2.601575529	0.848078905
1.344502621	2.576010865	0.792858646
1.750288116	2.592419164	0.825275186
1.605880109	2.582616012	0.76942312
1.470779343	2.573278018	0.719408033
1.344085492	2.56821394	0.674008377
1.74536233	2.586778315	0.699637393
1.592585612	2.559940071	0.64441245
1.473790833	2.576354546	0.604299893
1.351944129	2.578955411	0.56426247
1.739413263	2.577961257	0.577170889
1.599199651	2.569771541	0.531190988
1.473702013	2.574635219	0.491431819
1.359834727	2.589280041	0.456156279
1.734496843	2.570964922	0.458132694
1.594099497	2.559683284	0.415697241
1.473162609	2.570570034	0.379645396
1.363904607	2.593729394	0.347466621
1.713979189	2.538163168	0.22593014
1.768333776	2.600044015	0.9610987
1.628678829	2.601449342	0.901924777
1.493776543	2.599511981	0.848896203
1.355542478	2.577851013	0.794701265
1.760407276	2.590236128	0.826295619
1.616368129	2.581785726	0.770649487
1.488363293	2.585597889	0.7241255
1.354684064	2.569247797	0.675367301
1.757128006	2.587061756	0.701168815
1.605103858	2.562500813	0.646293632
1.485112188	2.577764474	0.605696431
1.360308454	2.575663659	0.564452728
1.752838481	2.580746195	0.578995627
1.607076033	2.564853192	0.531190988
1.487013712	2.579503606	0.493229554
1.365461741	2.580729237	0.45538574
1.738485756	2.559902621	0.457109729
1.609838932	2.567369969	0.417745674
1.503850149	2.605555457	0.385491985
1.369066337	2.584267683	0.346760156
1.371601168	2.58599666	0.239376181
1.729607253	2.54443971	0.226960109
1.776842519	2.595395671	0.961391001
1.643303271	2.606991648	0.905589985
1.503672504	2.598248072	0.849985954
1.367509348	2.581352474	0.797070369
1.778718901	2.599985646	0.831142726
1.626349163	2.580095193	0.771630581
1.500675301	2.588586051	0.726248321
1.365758562	2.571100886	0.676952666
1.770563867	2.58971383	0.703356543
1.615044574	2.560872997	0.647129707
1.496456044	2.579128874	0.607092966
1.368203986	2.571478106	0.564452727
1.764632266	2.581037946	0.580272955
1.624396789	2.574905136	0.53430241
1.524640623	2.626120773	0.503035293
1.378485271	2.586119046	0.457080897
1.74633128	2.554557082	0.45710973
1.624053945	2.572470999	0.419384415
1.478439807	2.543474022	0.376976329
1.383534318	2.592320485	0.348408583
1.750654458	2.560881083	0.343130481
1.639424264	2.595010828	0.308919464
1.52435686	2.620257639	0.276626304
1.383286032	2.588808812	0.240028196
1.756553364	2.567105117	0.229461447
1.642021189	2.598318018	0.197257454
2.291621754	3.346821355	0.150789854
1.790766035	2.598594317	0.964606318
1.656434626	2.610038379	0.908409401
1.516966249	2.602766752	0.852982696
1.372697061	2.572038234	0.795490966
1.786687152	2.594516362	0.831142726
1.639971333	2.584097114	0.774328583
1.514979508	2.594879883	0.729314682
1.376397521	2.572051342	0.678311533
1.784032574	2.592307913	0.705544273
1.623417826	2.556731511	0.647338739
1.506833568	2.578755922	0.608090509
1.376086814	2.567268506	0.564452728
1.784247918	2.592620678	0.584104937
1.634929204	2.574066576	0.535166736
1.544641114	2.641870853	0.506957635
1.3906198	2.589712172	0.458467867
1.753038666	2.547557357	0.456817458
1.635126985	2.572492514	0.4202038
1.47320777	2.516669973	0.373671729
1.397124025	2.598559208	0.349821539
1.541449919	2.631035146	0.278262064
1.779694752	2.583879647	0.231447802
2.326264484	3.375155779	0.152387288
1.807996109	2.606446338	0.969575439
1.668567015	2.611412079	0.910664901
1.529327634	2.605568796	0.855434536
1.380581458	2.567814715	0.795490965
1.795740266	2.590611989	0.831652942
1.654677259	2.589673748	0.777517135
1.525888606	2.595245909	0.730729875
1.387055247	2.572960812	0.679670402
1.794199959	2.590030813	0.706419331
1.638628234	2.563274012	0.65026503
1.518713598	2.580877301	0.609686544
1.384423053	2.563898409	0.564642985
1.79555285	2.59198393	0.585199814
1.646533098	2.574847101	0.536376711
1.567255258	2.661773478	0.511697041
1.403729522	2.594993101	0.460163052
1.774365241	2.561684814	0.460324714
1.65422476	2.584986405	0.423071617
1.48847758	2.524955432	0.375578242
1.412656681	2.608231913	0.351705464
1.559635525	2.643447749	0.280079588
1.772271793	2.556278726	0.229461447
1.551022437	2.856791453	0.146930342
2.355406029	3.395098077	0.153613222
1.818721465	2.604807787	0.97103706
1.676570846	2.606280715	0.910664901
1.540251795	2.60583429	0.857069132
1.391209622	2.568656884	0.797070369
1.815298521	2.601742938	0.837010207
1.665761389	2.589477039	0.778988773
1.53532891	2.593061083	0.731437502
1.398660982	2.575540661	0.681482261
1.802137605	2.58451402	0.70641933
1.650718489	2.564813269	0.651937236
1.527124019	2.577048713	0.60988604
1.802371769	2.584849989	0.584834855
1.584471117	2.672227346	0.514638768
1.411684229	2.590674377	0.460163052
1.791834284	2.570024615	0.462809006
1.505331078	2.53572952	0.377866018
1.647978532	3.013289081	0.155238633
2.373248768	3.398506729	0.154096168
1.831103409	2.605475135	0.973375471
1.690295787	2.609983182	0.91376625
1.549223408	2.602750217	0.857614036
1.398159518	2.562682909	0.796543883
1.825494862	2.59932663	0.83803064
1.681075688	2.595746437	0.782422598
1.543774754	2.589173222	0.731673358
1.411698006	2.580637272	0.683973558
1.811179329	2.580570484	0.706856888
1.663897153	2.567943702	0.654027451
1.537533808	2.576558698	0.610883583
1.815377012	2.586551073	0.586477141
1.595696475	2.67243613	0.515619383
1.805393341	2.572612764	0.464270333
1.516157237	2.536207513	0.378628601
1.806162385	3.278591219	0.169191157
2.388835924	3.398567709	0.154430506
1.845715583	2.60921394	0.976883086
1.69410313	2.59835552	0.911510693
1.559674511	2.602111574	0.858976183
1.406944458	2.560072309	0.79707037
1.840158402	2.603188526	0.841091934
1.69220827	2.595449269	0.783894236
1.555212503	2.59025685	0.733324466
1.417258286	2.572028645	0.682841186
1.820776991	2.577392455	0.707513252
1.676041954	2.56937942	0.655699602
1.54845965	2.576869049	0.612080566
1.423142071	2.578552566	0.570730766
1.82500574	2.583378583	0.587024551
1.676082274	2.568657445	0.538278159
1.604904679	2.669218851	0.515946196
1.437115345	2.599257524	0.463245179
1.809282232	2.561405723	0.463247398
1.686612279	2.58292317	0.425256634
1.523419518	2.530694295	0.378501523
1.454878439	2.62813433	0.356179777
1.813571936	2.56510286	0.231742085
1.824937262	3.288757862	0.170003926
2.399251398	3.391222894	0.154430506
1.854821188	2.60509724	0.97746769
1.705225657	2.597958506	0.913202334
1.573616634	2.607199247	0.862245319
1.415259183	2.556587904	0.797333585
1.849817845	2.599894211	0.841857256
1.704950688	2.597539579	0.786101694
1.565163101	2.588799638	0.734267947
1.426087948	2.56937191	0.683294125
1.834330223	2.579746617	0.70970098
1.688211111	2.570764558	0.657371751
1.560923647	2.579651556	0.613876153
1.836341507	2.582575203	0.588119428
1.610531373	2.660063036	0.515129076
1.443640832	2.592246435	0.462782855
1.825157232	2.567130641	0.465293298
1.538888771	2.538731843	0.380408006
1.851102245	3.31192003	0.171493997
2.418338977	3.396056455	0.15498775
1.865590065	2.603280953	0.978929195
1.719006223	2.601519896	0.916303682
1.586105469	2.609759411	0.864697216
1.432962294	2.569928462	0.802861497
1.859474386	2.596565243	0.842622581
1.715049672	2.595531905	0.787082786
1.576130076	2.588966037	0.735683199
1.434439177	2.565834706	0.683520621
1.851322482	2.586802805	0.713201325
1.70148312	2.573730848	0.659461967
1.570870061	2.578197834	0.614674142
1.448529851	2.586903525	0.574535628
1.845400469	2.578528314	0.588484387
1.698874507	2.56900496	0.540525313
1.614062843	2.647528119	0.513658211
1.837054309	2.56715039	0.466316233
1.551837949	2.542465226	0.381678988
1.824331095	2.549370558	0.346758585
1.865664918	3.314059918	0.171900381
2.430493199	3.391057837	0.155099196
1.870211393	2.592891512	0.977175387
1.729636356	2.600227977	0.917713391
1.592095712	2.601598105	0.863607521
1.445564145	2.573931595	0.805493818
1.873650944	2.599476563	0.845428768
1.72461536	2.592679698	0.787818607
1.587112785	2.589089501	0.737098452
1.443260163	2.563119339	0.683973559
1.863812538	2.58744498	0.714951497
1.714247338	2.575825443	0.661343149
1.578260038	2.572531007	0.614474644
1.455495021	2.580737149	0.574155171
1.858474609	2.580034609	0.590126673
1.710022928	2.568700279	0.541562435
1.601016723	2.608091953	0.506957635
1.460977407	2.58592048	0.463245178
1.853015923	2.572740494	0.468362132
1.712510368	2.570588198	0.42580288
1.564305056	2.545297631	0.382822889
1.476560936	2.610310899	0.355591061
1.829820222	2.540535679	0.346318822
1.722483699	2.58379931	0.312524353
1.600724054	2.602416793	0.278807328
1.464574113	2.586170196	0.243043833
1.842352524	2.555583403	0.232404203
1.718580535	2.577164638	0.198794524
1.911300183	3.37088925	0.175151443
2.472456051	3.42734874	0.157105279
1.889393851	2.602619499	0.983021528
1.742943846	2.602881344	0.920532808
1.607641175	2.608988804	0.86769396
1.4710284	2.600553489	0.815233455
1.885023901	2.598411931	0.846959415
1.735797918	2.592209484	0.789290244
1.597090202	2.587515879	0.738041934
1.456402445	2.567999042	0.686464854
1.875178417	2.586454632	0.716264169
1.725407645	2.57542876	0.66259729
1.585630003	2.566843419	0.614275149
1.470679157	2.589064016	0.577008803
1.871575309	2.581484811	0.591768959
1.722830436	2.570805741	0.543118175
1.602786189	2.593097499	0.504996464
1.472813336	2.58829624	0.464478041
1.863222694	2.570247193	0.468946646
1.719285228	2.563676815	0.425529743
1.601857518	2.588563439	0.390067536
1.47423924	2.587649042	0.353118393
1.851023376	2.553418778	0.34884749
1.733174789	2.582633616	0.313025033
1.60293271	2.588180481	0.277807669
1.477439416	2.590322387	0.243858868
1.854869792	2.556376646	0.232992754
1.721473162	2.564422867	0.198218117
1.937980916	3.393636918	0.176641529
2.49352759	3.434302901	0.157773968
1.905268333	2.607621209	0.987113748
1.753066337	2.600704048	0.92166053
1.614116002	2.601591555	0.866876661
1.485685688	2.607763576	0.818918692
1.89526756	2.595740267	0.847979847
1.746993762	2.59169534	0.790761885
1.606559909	2.585079875	0.738749501
1.475385354	2.582971482	0.691673942
1.884830164	2.583054268	0.716920476
1.736581477	2.574987684	0.66385143
1.593497552	2.561966684	0.614275149
1.481540382	2.58965278	0.578150234
1.88006593	2.576525058	0.59195141
1.734014486	2.570407058	0.544155296
1.608127891	2.583980059	0.504179286
1.483694965	2.588908918	0.465402687
1.872848663	2.566916505	0.469385068
1.729913827	2.562495318	0.426212573
1.604546288	2.575218425	0.388796557
1.47821726	2.5762234	0.352176431
1.861191792	2.550939559	0.349287282
1.740533091	2.576479703	0.312924897
1.609284747	2.5807155	0.277535066
1.480911479	2.577999411	0.243125343
1.869761823	2.560338656	0.233875588
1.755593922	2.597991739	0.201228212
1.969799557	3.424912135	0.178583135
2.512896217	3.438739312	0.158331212
1.918358519	2.608697501	0.989744574
1.76265303	2.597695313	0.922506379
1.626678007	2.60397158	0.869328557
1.494159426	2.604030007	0.819181964
1.904939933	2.592250742	0.848745169
1.758202764	2.59113656	0.792233579
1.619122518	2.587553116	0.740872379
1.487674028	2.586031341	0.693712242
1.895056353	2.580405326	0.71779559
1.74612101	2.572075112	0.664478472
1.602390196	2.558726674	0.614674142
1.492419099	2.590199119	0.579291722
1.894363579	2.579462134	0.593958656
1.746872184	2.572408493	0.545711036
1.611857077	2.572346336	0.502871858
1.495581989	2.591190779	0.466635521
1.87895842	2.558766363	0.468946646
1.740551311	2.561272543	0.426895374
1.626144297	2.592129679	0.392101127
1.5084728	2.610367206	0.357474985
1.869597457	2.546018634	0.349397223
1.752345957	2.576887042	0.313625848
1.629374013	2.595164525	0.279625193
1.51726229	2.622617969	0.247771048
1.884695569	2.564233141	0.234758407
1.762433593	2.590943119	0.201100135
1.982300556	3.422310487	0.178763752
2.52165819	3.428598524	0.158219766
1.930904241	2.608949236	0.992082984
1.776025732	2.600197794	0.925325738
1.637732858	2.603855559	0.870963155
1.502624073	2.600269004	0.819445178
1.915183774	2.589504034	0.849765603
1.770518323	2.592134591	0.794195764
1.628089425	2.584217977	0.741344092
1.499995455	2.589040179	0.695750601
1.907604008	2.580856931	0.719545763
1.907528123	2.580754055	0.595600942
1.508743664	2.589532125	0.245081419
1.967623013	3.373067761	0.176506062
2.523246753	3.408797908	0.157662522
1.940041629	2.604546927	0.992667586
1.786712462	2.598689761	0.926735447
1.648287399	2.602883331	0.8723253
1.51593228	2.604818783	0.822340772
1.926583321	2.588269763	0.851296249
1.780659561	2.589886014	0.795176858
1.642256377	2.589058419	0.744174596
1.511367474	2.590314996	0.697335965
1.922501737	2.584387154	0.722171048
1.776834128	2.583066673	0.670122078
1.917784193	2.578045232	0.596330803
1.905353042	2.561614667	0.353135269
1.493983947	2.546208135	0.241413766
1.859557633	3.165459567	0.165940081
2.534289925	3.401842037	0.157699671
1.949170519	2.600113279	0.993252191
1.796314794	2.595562791	0.927581296
1.658334235	2.601059432	0.873415051
1.52342888	2.599323497	0.822077501
1.937413393	2.586216183	0.852571788
1.79521709	2.593976919	0.798120136
1.656991262	2.594655091	0.747240898
1.521774474	2.589864849	0.698468392
1.939193554	2.590193711	0.725452643
1.78753399	2.581623085	0.671167185
1.930987595	2.57923304	0.597973089
1.913693008	2.556411442	0.471723209
1.923328943	2.569283724	0.355004291
1.499253418	2.537322298	0.241006249
1.689200986	2.855372895	0.14995565
2.5561045	3.409242242	0.158405509
1.960594045	2.598701475	0.995005997
1.807011409	2.593975922	0.928990949
1.667865624	2.598388623	0.874232349
1.538751664	2.607099527	0.826026008
1.950577446	2.587208779	0.854867759
1.80482928	2.590843442	0.798855955
1.669148148	2.596098477	0.749127861
1.533681103	2.59188996	0.700280197
1.952415772	2.591245876	0.727421621
1.799919074	2.582545261	0.672839336
1.941849838	2.5772231	0.598885515
1.929860688	2.561590281	0.473769109
1.928809932	2.560195459	0.354564499
1.507540431	2.533567249	0.241087758
1.729652379	2.903387136	0.152755176
2.571367225	3.407765821	0.158702698
1.977810523	2.604860779	0.999682934
1.819367709	2.594704262	0.931246505
1.678440705	2.597299913	0.875594494
1.550193327	2.608171684	0.827868629
1.970194877	2.596617929	0.859969917
1.817778564	2.592437973	0.801063413
1.682385578	2.59912349	0.751486596
1.545115771	2.593029574	0.701865561
1.963893843	2.589908989	0.728734236
1.810080255	2.580213208	0.67367541
1.955688375	2.57908786	0.600710253
1.522990374	2.541754368	0.242310309
1.829515273	2.602792951	0.204174275
1.705147711	2.8423845	0.149820184
2.584227536	3.403044223	0.158851307
2.298186105	3.265919763	0.110152968
1.989276687	2.603340025	1.001436742
1.834511547	2.599300618	0.934911714
1.692172954	2.601010037	0.878591237
1.558187797	2.603403517	0.827868629
1.98225956	2.595940673	0.861755673
1.827959518	2.590016989	0.802044504
1.691943286	2.596392323	0.752194222
1.55907755	2.598299538	0.704583354
1.977750013	2.591628775	0.730921966
1.816859548	2.573050017	0.6732574
1.965977469	2.576202274	0.601440171
1.952143255	2.55835168	0.475376587
1.948703454	2.553843565	0.355334114
1.527691824	2.531949718	0.241821283
1.703012793	2.81918315	0.148871963
2.605578077	3.409391849	0.159519997
2.351527912	3.320033581	0.112220921
2.005998885	2.608595966	1.005821261
1.848589476	2.602263963	0.938013063
1.704362183	2.602245561	0.880770682
1.570649381	2.606047046	0.830237732
1.991982125	2.592146946	0.862520997
1.837581341	2.5867679	0.802780325
1.705231554	2.599314502	0.754552898
1.573086281	2.603507982	0.707301147
1.982719963	2.581679307	0.7298281
1.830976615	2.576231979	0.675556591
1.978064119	2.575617108	0.6027175
1.972873999	2.569137669	0.358302545
1.546837757	2.545990275	0.243614369
1.720998635	2.82930796	0.149684732
2.620899392	3.407719002	0.159817186
2.391296183	3.354315456	0.113627129
2.012236508	2.60016059	1.004944357
1.859354534	2.600482686	0.939422715
1.715515628	2.601824023	0.882405279
1.583141948	2.608638812	0.832606839
2.007023457	2.595201915	0.865582291
1.846636515	2.58269524	0.803270871
1.714269105	2.595692516	0.755024667
1.58359765	2.602830092	0.708433574
1.99719484	2.584076957	0.732234636
1.99377296	2.579649538	0.605089646
1.570245079	2.566738513	0.246059471
1.738540908	2.838496756	0.150452336
2.638681802	3.409145053	0.160262984
2.419058978	3.371328401	0.114454307
2.023729934	2.598501905	1.006698166
1.867884367	2.595544661	0.939704644
1.729875005	2.606168411	0.885674415
1.593652891	2.607885537	0.833923028
2.02032064	2.595899765	0.867878319
1.859081608	2.58331267	0.805233056
1.7265288	2.596895123	0.756911632
1.595137199	2.603773193	0.710018938
2.009906017	2.584099381	0.733984809
1.854749238	2.576059459	0.67848294
1.714760827	2.577145663	0.630235543
1.584924392	2.583153891	0.587281963
1.999263312	2.570416265	0.604359786
1.993826451	2.563703193	0.479760627
2.010567493	2.585229313	0.362260472
1.581248689	2.567000406	0.246548497
1.726265749	2.79913829	0.148646196
2.644829781	3.395515124	0.160002943
2.440510472	3.379288302	0.114978188
2.042901028	2.606582018	1.012252004
1.879778244	2.595240923	0.941678271
1.741069884	2.605649004	0.887309012
1.604679761	2.607913773	0.835502431
2.028275453	2.589689329	0.867878321
1.873253889	2.586233381	0.80793106
1.7377308	2.596431609	0.758326884
1.607720305	2.606327986	0.712057239
2.028650272	2.591751809	0.73792271
2.019866201	2.580529372	0.608191768
1.612756443	2.600251566	0.25021615
2.670030414	3.406260558	0.160894525
2.455568402	3.378253579	0.115198769
2.063917363	2.616821594	1.018682748
1.892818163	2.596439362	0.944215702
1.75388891	2.607480579	0.889760909
1.613689259	2.604618653	0.836028861
2.048780036	2.599401557	0.873235585
1.88860369	2.59065819	0.811119611
1.749489308	2.596729557	0.759977934
1.619820032	2.60800275	0.713869102
2.040214918	2.59011487	0.739235381
1.622838025	2.598673112	0.250542187
2.699035405	3.421590703	0.162009013
2.473593812	3.381192284	0.115557217
2.699055697	3.419038667	0.002965035
2.074313945	2.61347356	1.019851953
1.907585861	2.599902683	0.947598982
1.764038056	2.605274465	0.89085066
1.622693748	2.601292747	0.836555348
2.058547808	2.595376462	0.874000908
1.906865743	2.598921215	0.815534527
1.762356759	2.598588375	0.762100811
1.630395793	2.607150017	0.715001529
2.05239459	2.58919617	0.740766803
1.890532247	2.575434282	0.682872346
1.752715518	2.582334587	0.635422639
1.618532889	2.584265462	0.590896567
2.039937313	2.573480677	0.609469096
2.032699735	2.564625989	0.483414033
1.628680906	2.590306886	0.25021615
2.717596871	3.423468946	0.162491959
2.483955602	3.373587358	0.115557217
2.716996652	3.420137849	0.002973203
2.087096976	2.613075347	1.022190366
1.919542693	2.599440579	0.949572549
1.779067431	2.610186037	0.894392251
1.638363473	2.608556642	0.840503858
2.07072302	2.594338634	0.875786664
1.917133832	2.596178275	0.816515621
1.781279144	2.609221176	0.766818222
1.642538574	2.608729842	0.716813335
2.060937081	2.583650135	0.740985553
1.904816649	2.578274151	0.685171595
2.055793715	2.577202195	0.6118413
1.643550589	2.596245535	0.251275711
2.729958184	3.417457593	0.162603405
2.496079434	3.36836036	0.115639933
2.098698537	2.611132282	1.023944173
1.931514869	2.598929737	0.951546121
1.791965994	2.611856236	0.896844147
1.649452352	2.60841021	0.842083261
2.087149381	2.598527523	0.879358174
1.92046345	2.584059667	0.814553436
1.792578032	2.608549541	0.768233475
1.651055741	2.604500811	0.71703983
2.071297187	2.580358945	0.741860668
1.659007535	2.602957609	0.252416753
2.111108316	2.62788679	0.248662935
2.73792561	3.405950839	0.16245481
2.50640166	3.360686653	0.115639933
2.109105037	2.607655567	1.025113378
1.942352503	2.59683307	0.952955829
1.801610908	2.608721279	0.897661444
1.66262824	2.611475474	0.844715582
2.100582052	2.598879897	0.881654145
1.936511365	2.589023898	0.817987257
1.803889499	2.607833022	0.76964867
1.661658616	2.603528545	0.718172259
1.66860026	2.600372069	0.25266128
2.085304078	2.579517349	0.244690225
2.657231771	3.284879451	0.15706813
2.493297479	3.32180175	0.114564598
2.115284264	2.598947336	1.024236472
1.956657557	2.599293664	0.956057178
1.810704297	2.604761795	0.89820629
1.673235303	2.610423207	0.846031712
2.112206223	2.59692401	0.883184795
1.951441916	2.592365118	0.820930537
1.813547593	2.604678852	0.770356294
1.674377121	2.605793256	0.720210561
2.098169517	2.581230365	0.745798569
1.678192674	2.597752187	0.252905779
2.095096135	2.575428346	0.244910911
2.319059629	2.848910192	0.136561599
2.401650724	3.179337974	0.109904811
2.127489427	2.597624685	1.026282698
1.968098832	2.597866968	0.957748759
1.820893523	2.602347899	0.899296042
1.690651861	2.619868463	0.850769924
2.135473712	2.609137683	0.88956249
1.964654769	2.593320624	0.823137995
1.826549585	2.606265086	0.772479172
1.682363644	2.600644066	0.72021056
2.109785583	2.579312822	0.74711124
1.685611231	2.591755814	0.25282427
2.097302127	2.5620433	0.244248793
2.328422314	2.842554906	0.136598748
2.423492778	3.187870341	0.110456266
2.291268275	3.253509221	0.071891436
2.153087168	2.612486938	1.034759435
1.97780499	2.594105573	0.958594665
1.833855254	2.603828975	0.90174788
1.701835104	2.619523253	0.852349328
2.150230051	2.610784026	0.892368678
1.979654925	2.59653218	0.826081328
1.837897968	2.605413429	0.773894366
1.694586776	2.601999852	0.722022421
2.126990577	2.584128807	0.750392834
1.78233864	2.725077435	0.386087122
1.688095061	2.578233979	0.252009236
2.110859399	2.562524582	0.244910912
2.3409459	2.84002494	0.13682164
2.456950485	3.211382956	0.111531601
2.302395469	3.248095601	0.071927564
2.167196861	2.613230365	1.037682564
1.991594656	2.595637425	0.961413968
1.846286579	2.604470252	0.903927325
1.70827945	2.611867601	0.851559626
2.16193168	2.608641766	0.893899326
1.994693573	2.599676164	0.829024607
1.850383336	2.606101639	0.775781331
1.706300084	2.602490617	0.723607787
2.142377553	2.586608878	0.753018119
1.984106902	2.584664285	0.696458748
1.791782874	2.72125526	0.386322591
1.69544852	2.572210637	0.251927727
2.13080338	2.570624891	0.246308729
2.375166708	2.863595987	0.138307628
2.483866841	3.226007258	0.112303638
2.314672422	3.244272427	0.07199982
2.178880313	2.610974573	1.039436371
2.007757886	2.600146534	0.965361222
1.858180218	2.604276269	0.905834373
1.715223434	2.605002968	0.851033197
2.173020967	2.605709484	0.895174863
2.003252363	2.594311596	0.82926988
1.862325185	2.605946968	0.777432439
2.159049291	2.590518134	0.756080907
1.71600649	2.586097853	0.253802322
2.144429207	2.570968388	0.246970848
2.47294652	2.962936827	0.143471402
2.47905794	3.19940748	0.111641892
2.339777829	3.258271238	0.07246946
2.190570354	2.608671893	1.041190181
2.022790165	2.603065514	0.968744501
1.870090029	2.604034034	0.907741367
1.732268527	2.613398504	0.855508136
2.184734355	2.60347467	0.896705512
2.012391828	2.589684584	0.829760427
1.875985873	2.60811013	0.779791172
1.73571256	2.612253449	0.729269811
2.173256902	2.591358573	0.758268636
1.721164359	2.576677244	0.253394806
2.148459826	2.559793773	0.246529445
2.46531547	2.935440065	0.142505523
2.412640875	3.094038894	0.108222873
