x	y	z
8.870263402	-6.446952307	0.599635212
8.918979657	-6.488070795	0.199254887
7.372863474	-6.260085117	1.069850248
7.441561167	-5.868480901	0.953795051
7.333432753	-6.232114401	0.709940003
7.441821869	-5.870372232	0.608295883
8.470658715	-6.201770874	0.189663337
7.429191765	-6.347238897	1.080844562
7.474960163	-5.932105239	0.960404014
7.325647623	-6.264305933	0.711043582
7.430029519	-5.898139294	0.608808244
7.414959711	-6.374537176	1.081614177
7.462168085	-5.959356365	0.961104965
7.376699073	-6.34724482	0.71788548
7.421256175	-5.928381064	0.609576787
7.405140416	-6.405709244	1.083043378
7.43842082	-5.977858879	0.960404014
7.379056494	-6.388776572	0.720018969
7.40303302	-5.951121155	0.609576786
14.80622417	-10.23358152	0.813535323
14.81066282	-10.2389408	0.156187249
7.380955081	-6.424482555	1.082383792
7.420046221	-6.000651898	0.960404015
7.389499286	-6.437589108	0.72296171
7.399481811	-5.985730131	0.610793615
7.338031103	-6.426795892	1.07897548
7.392341009	-6.015851696	0.959202385
7.368214392	-6.458914818	0.722814605
7.388048626	-6.014073399	0.611369993
14.68285542	-10.28430409	0.155501975
7.367495403	-6.492650609	1.086231749
7.370000828	-6.035350591	0.958701706
7.341632892	-6.475552244	0.722152458
7.369563157	-6.036711248	0.611369993
7.342235329	-6.050339969	0.957500076
8.794542155	-6.23243708	0.881461822
7.350237642	-6.058657616	0.611305977
7.303724913	-6.056324695	0.954896545
7.324702408	-6.075445505	0.610729541
10.43150081	-9.321229836	0.520055962
7.447069345	-6.213842494	0.976125395
7.306028988	-6.097888632	0.610729541
7.325100754	-6.150288996	0.962607061
9.028439029	-6.52384482	0.910884641
7.294928351	-6.126692712	0.611369993
7.812996513	-6.091770648	0.541757434
8.884030892	-6.426580818	0.495607724
7.352559227	-6.211902813	0.968715345
7.284482057	-6.156129986	0.612074519
8.807740887	-6.412646554	0.492446949
10.24846006	-9.328722596	0.515189421
7.380466519	-6.274386814	0.974923765
7.401285408	-5.83994121	0.860322313
7.294449766	-6.203016114	0.614508177
10.20873776	-9.349997058	0.514632177
7.397473909	-6.328045468	0.979730283
7.453525062	-5.918354415	0.868501143
7.33452795	-6.275973276	0.619503701
7.400117081	-5.880160017	0.516859084
7.387074244	-6.35850023	0.980931914
7.445446399	-5.949275505	0.869682507
7.356076836	-6.333607238	0.622962083
7.396079539	-5.914060016	0.517841963
7.367531812	-6.381133398	0.980931913
7.424055059	-5.969593575	0.869319037
7.366026771	-6.381630038	0.625459815
7.363897787	-5.92545561	0.516859084
7.350920606	-6.406321426	0.981332457
7.397189774	-5.985451711	0.868319408
7.358449715	-6.414691086	0.626484538
7.343356249	-5.94613468	0.51669529
7.296071462	-6.398011607	0.976626074
7.378019821	-6.00748864	0.868228511
7.33873488	-6.437236413	0.626484538
7.331271562	-5.973681566	0.517132132
7.381604225	-6.513184951	0.990745281
7.365716465	-6.035145022	0.868955509
7.292764061	-6.436607912	0.624242986
7.323719826	-6.005008755	0.517896561
9.843668068	-9.354585639	0.50482471
7.346398015	-6.057081202	0.868864671
9.748277048	-9.315157978	0.99465178
7.299100798	-6.022365983	0.517459719
9.791086971	-9.361951776	0.503598761
10.49945692	-9.334139134	0.387506814
7.309386647	-6.064329793	0.866683618
7.289040694	-6.051747083	0.518060355
9.709027863	-9.340677191	0.500849676
7.423000165	-6.197138605	0.882405177
9.61782496	-9.304069784	0.987147675
7.283466803	-6.084964286	0.518988578
9.668837028	-9.359299596	0.500255298
10.31790612	-9.286709057	0.382902176
7.302539214	-6.134687795	0.870318667
9.589950135	-9.33422843	0.987221287
7.276228877	-6.116918776	0.519807606
9.60786283	-9.357543915	0.498583567
7.483952787	-5.869981593	1.1277653
7.298133879	-6.169278062	0.872045294
9.541316744	-9.344068113	0.98516135
7.26428899	-6.145017033	0.520298987
9.503452638	-9.312837634	0.494645727
10.29176266	-9.378121532	0.384060235
7.469026648	-5.895374994	1.128236296
7.29737837	-6.207125086	0.874226348
7.450418947	-5.886599484	0.776485109
9.479217518	-9.340398082	0.981703625
7.253765909	-6.174394123	0.520899622
9.460605032	-9.327917237	0.493902725
10.22462917	-9.374523283	0.382626445
7.489784295	-5.949144403	1.134123566
7.316886177	-6.262509182	0.878861025
7.506436574	-5.968356161	0.78422799
9.413688929	-9.332923878	0.97787802
7.252989972	-6.212208334	0.52221009
7.438609534	-5.920786686	0.429728379
9.408531635	-9.333672799	0.492676806
7.469946073	-5.970854544	1.133888009
7.329331659	-6.312222217	0.882677809
7.497429496	-5.998829876	0.785206043
9.346884373	-9.323728328	0.973905311
7.252806383	-6.250727276	0.523575096
7.434444159	-5.954821692	0.430541118
9.349439247	-9.332137558	0.491079372
7.453140203	-5.994988845	1.134123566
7.331756524	-6.353591992	0.885313169
7.482871699	-6.024928539	0.78561356
9.29641534	-9.330459187	0.971624659
7.24491055	-6.282762145	0.524394124
7.448029188	-6.003305278	0.432392438
9.306662362	-9.346614552	0.49033637
7.43702827	-6.019700995	1.134476783
7.30472345	-6.369510553	0.884404436
7.463577626	-6.047230071	0.785532021
9.257219735	-9.348306113	0.970521138
7.228610568	-6.307585305	0.524612515
7.428800339	-6.025497897	0.432347288
9.266696953	-9.363759018	0.489741993
7.416985421	-6.041234485	1.134241227
7.260444713	-6.370217026	0.881405548
7.460439407	-6.082695586	0.787162089
9.166934885	-9.314113935	0.96404706
7.298515225	-6.408129701	0.531110136
7.435818659	-6.069106158	0.433837344
9.204990662	-9.358659087	0.487995964
7.411472419	-6.074662601	1.136242987
7.347624839	-6.486710977	0.894400791
7.439430905	-6.103658979	0.78691759
9.139014641	-9.342907233	0.964120613
7.27582775	-6.427846834	0.530891745
7.42488372	-6.098230908	0.434288909
9.168551064	-9.3789956	0.487587315
9.82510202	-9.346860867	0.374051333
7.385906156	-6.091685551	1.135183218
7.423744511	-6.128992054	0.787243627
9.073463399	-9.333003336	0.960221456
9.761084969	-9.333386733	0.866715933
7.410759829	-6.124799754	0.434559812
9.080542511	-9.346158152	0.48442961
9.784826448	-9.365900053	0.373610169
7.378644372	-6.12382942	1.136949422
7.382673822	-6.133268896	0.784880005
9.030234834	-9.345734959	0.958676503
9.674152157	-9.307246953	0.861528302
7.397310799	-6.151978416	0.434875896
9.019200623	-9.340185772	0.482683581
9.721485388	-9.362591797	0.372286708
7.35753536	-6.144528188	1.136596205
7.375292761	-6.165478327	0.786102556
8.971125714	-9.341745865	0.955439494
9.617588208	-9.309813751	0.85903057
7.375337478	-6.172079337	0.434695264
8.983584126	-9.360602576	0.482312095
9.646054648	-9.347156658	0.370494456
7.340930673	-6.168988669	1.136949423
7.377698436	-6.206040935	0.78838464
8.921077475	-9.346860608	0.953158842
9.567534096	-9.318387771	0.857109214
7.338027772	-6.179234079	0.433611591
8.90171445	-9.332440227	0.479451579
9.60588036	-9.36554074	0.370053292
7.333344054	-6.201099471	1.138715627
7.358623673	-6.228646286	0.78838464
8.87039696	-9.35103224	0.950804637
9.526070743	-9.335124315	0.85595646
7.312938576	-6.196551605	0.433250358
8.866853311	-9.3531795	0.479117226
9.535000678	-9.353666672	0.368426503
7.342268036	-6.247378965	1.143072131
7.356931646	-6.26605644	0.790259265
8.787620557	-9.320876428	0.944992707
9.486016015	-9.35309495	0.854931737
7.305296018	-6.228680131	0.433927675
8.824410482	-9.365792581	0.478374225
9.461438359	-9.338635983	0.366689444
10.20861554	-9.366854489	0.250301422
7.332119122	-6.27762572	1.144485119
7.356592054	-6.304812179	0.792296849
8.755573918	-9.344154105	0.944624887
9.423270565	-9.348417761	0.851857568
7.30283251	-6.265373853	0.434921046
8.758067629	-9.352703264	0.476331008
9.385221068	-9.320425775	0.364842058
10.11959074	-9.34251577	0.248820247
7.368498662	-6.348054543	1.153198245
7.360612772	-6.347529923	0.794823431
8.689483029	-9.330831735	0.940578566
9.345104249	-9.327933459	0.847374464
7.303236816	-6.304721618	0.436095049
8.700057993	-9.348073115	0.474733573
9.356582632	-9.349175489	0.364842058
10.06157856	-9.346299003	0.24809772
7.394551795	-6.416459849	0.800610208
8.669622451	-9.366961282	0.941534982
9.279123076	-9.319080208	0.843980099
7.329110541	-6.366404879	0.438804259
8.654372704	-9.356380584	0.473804843
9.307411637	-9.357283916	0.364042461
10.03504915	-9.37917217	0.2481519
7.378585153	-6.442393334	0.801017724
8.616537775	-9.367091605	0.938886509
9.235045925	-9.331898306	0.842571104
7.360691641	-6.433565539	0.441874733
8.589782725	-9.343896136	0.471835923
9.263199782	-9.370155046	0.363435865
9.947229083	-9.354432928	0.246688785
7.326180602	-6.430014461	1.155788663
7.361780338	-6.467631562	0.801343761
8.533926386	-9.334598721	0.933000968
9.187478375	-9.340978038	0.840841914
7.346169846	-6.460735274	0.442190816
8.52535201	-9.331104691	0.469867003
9.181164296	-9.344339468	0.361340315
9.885802029	-9.353983781	0.245875942
8.48110397	-9.334164634	0.930352495
9.132269059	-9.342003095	0.838408197
7.330802728	-6.487215	0.442461719
8.479889875	-9.338720056	0.468938273
9.125913742	-9.345285952	0.360292555
9.828816304	-9.357381777	0.245171474
8.433044191	-9.338675442	0.928219006
9.095220595	-9.361387389	0.837639655
7.263862435	-6.467822973	0.439617028
8.439147477	-9.35133848	0.468269568
9.079099417	-9.354589545	0.359575689
9.782733053	-9.370892554	0.24473797
10.48357951	-9.336661722	0.12177678
8.392363934	-9.351143799	0.92689477
9.014466225	-9.335405447	0.832836355
10.41211265	-9.328486362	0.631881763
8.396406169	-9.361563276	0.467489433
9.010798849	-9.341391242	0.358004034
10.43552336	-9.351430465	0.121551251
8.340401698	-9.350798681	0.924319849
8.974727496	-9.351496823	0.831811631
8.326419326	-9.341029313	0.465186161
8.973796932	-9.360332792	0.357673169
9.646813126	-9.354872946	0.242769079
8.26536625	-9.324102685	0.919170008
8.899845901	-9.330604762	0.827520634
9.562738197	-9.322623682	0.730296938
10.20151136	-9.253269023	0.622534921
8.261277124	-9.325389714	0.463142943
8.910558516	-9.351635007	0.356294513
9.618783121	-9.385123644	0.242787139
10.23130951	-9.28225023	0.119833765
8.216944014	-9.326966881	0.916962967
8.827924522	-9.312238105	0.823485816
9.501302375	-9.319754563	0.727785258
10.22177447	-9.328969251	0.625515093
8.208855025	-9.323690064	0.461805564
8.863956002	-9.360056709	0.355577619
9.542141528	-9.367660144	0.241576912
10.2485727	-9.355394307	0.120371563
8.182377692	-9.345378929	0.916300819
8.784257674	-9.323299038	0.822076823
9.462715692	-9.339041235	0.727020829
10.1636733	-9.333257392	0.623708953
8.156522537	-9.321755926	0.460468185
8.779703408	-9.328245813	0.353344232
9.493439785	-9.377217133	0.241071137
10.20288394	-9.371234004	0.120172059
8.088202885	-9.29520378	0.908943937
8.742652679	-9.336364669	0.820859994
9.406386898	-9.340588653	0.724891334
10.11738251	-9.348124643	0.622625222
8.120672386	-9.338441427	0.460059535
8.738752403	-9.341997741	0.352847934
9.399382297	-9.34145651	0.239409329
10.13149184	-9.363128844	0.119668951
8.038772545	-9.295835735	0.906589733
8.692891869	-9.340496356	0.818874622
9.335303865	-9.327059463	0.721615224
10.07329003	-9.364836297	0.621677031
8.047550713	-9.311897931	0.457533371
8.678060355	-9.334355012	0.35155201
9.349468536	-9.349040424	0.238867434
10.06537078	-9.359440151	0.119226573
7.99916501	-9.307596232	0.905339048
8.63912277	-9.3400152	0.816504921
9.25805536	-9.306809783	0.717847733
10.02189535	-9.374541315	0.620277216
8.021549092	-9.339575711	0.457681966
8.618176079	-9.327162496	0.350283683
9.299596781	-9.356405991	0.238325538
10.01981483	-9.3745627	0.119027069
9.925544526	-9.331878633	1.114073239
7.968628794	-9.329818648	0.905118391
8.57125551	-9.323864299	0.81279036
9.214716698	-9.320258228	0.716701119
9.96399	-9.377857681	0.618471077
7.970151095	-9.337539019	0.45638172
8.585463887	-9.34914106	0.35011825
9.223067956	-9.336524182	0.237097235
9.96333938	-9.379212961	0.118697448
9.881664036	-9.347902379	1.112361633
7.927706067	-9.339775979	0.903720543
8.525108186	-9.330961197	0.811125185
9.181879935	-9.344211443	0.716373472
9.877143574	-9.353430719	0.614858796
7.919487387	-9.336036506	0.455118638
8.529786263	-9.345902654	0.349015326
9.190177404	-9.360495226	0.236988859
9.811066434	-9.338320928	1.107634389
7.862362087	-9.320603444	0.899527119
8.487048965	-9.34672804	0.810228552
9.13782037	-9.356621433	0.71517226
9.8368289	-9.372663933	0.614136328
7.885010831	-9.353413051	0.454784286
8.450703567	-9.316497418	0.346947373
9.133485088	-9.360022693	0.236266332
9.752858078	-9.340113019	1.104292715
7.829885489	-9.340094898	0.899085686
8.431589954	-9.343087695	0.807666803
9.035354001	-9.3086639	0.70938447
9.756828083	-9.353713961	0.610930433
7.851785455	-9.372198294	0.454524261
8.416726798	-9.336440152	0.346726805
9.076187214	-9.358572707	0.235525744
9.689706893	-9.336795338	1.100380622
7.83055761	-9.39931941	0.90246986
8.380898344	-9.344395112	0.805553342
9.014378179	-9.344244478	0.709985106
9.707953359	-9.364184857	0.609666099
7.821076774	-9.393939105	0.4544128
8.37803697	-9.351050979	0.346313209
9.043963378	-9.382774709	0.235435428
9.645273531	-9.351216025	1.098587476
7.818219654	-9.443271908	0.904382691
8.293091629	-9.303761932	0.79985335
8.945588009	-9.330052858	0.706818192
9.628997899	-9.345222531	0.606505325
7.795405344	-9.421738745	0.454598558
8.300782441	-9.322212509	0.34430039
8.949426489	-9.341887547	0.233719425
9.558036462	-9.323695095	1.091904245
7.818358557	-9.502638781	0.907766864
8.251935788	-9.314968673	0.798636521
8.909343912	-9.349502156	0.706217615
9.567404133	-9.342613847	0.604428281
7.77027079	-9.45024232	0.454821449
8.26088141	-9.334908565	0.343831659
8.893146261	-9.340334754	0.232996898
9.525830272	-9.349484585	1.09149667
7.796111815	-9.535074015	0.908576117
8.204854743	-9.319269012	0.796843256
8.831182981	-9.324594226	0.702286272
9.497366596	-9.331315307	0.601809373
7.757681281	-9.49415646	0.455787343
8.220320424	-9.346697776	0.343335361
8.866510073	-9.36975355	0.233051093
9.457388321	-9.339447427	1.086932503
7.795750873	-9.594550828	0.911960289
8.167024321	-9.333882484	0.795946623
8.782002325	-9.329832007	0.700648217
9.454484988	-9.346363008	0.600906303
7.779540808	-9.58074862	0.458796453
8.183712391	-9.362841573	0.343004466
8.815118417	-9.372876761	0.232455002
9.386977077	-9.326970807	1.08212372
7.796977737	-9.656443434	0.915565119
8.112811649	-9.32952558	0.79344889
8.734236931	-9.336313456	0.699119358
9.391768909	-9.341509474	0.598738899
7.808472245	-9.676896737	0.462251347
8.101194456	-9.326023173	0.340743513
8.734431815	-9.344364756	0.231082203
9.32307566	-9.320492836	1.07804855
7.801643004	-9.72310074	0.91961144
8.054787115	-9.320393735	0.790566886
8.672916974	-9.327965345	0.696498482
9.329172084	-9.33635939	0.596571496
7.793125475	-9.718738964	0.46310578
8.053600998	-9.328890136	0.339943916
8.673058076	-9.335956287	0.230215164
9.286707818	-9.34127759	1.077152096
7.801619935	-9.784418568	0.923142718
8.015100759	-9.332192287	0.789478089
8.621217689	-9.329595607	0.694642036
9.289221256	-9.353595897	0.595849087
7.78133202	-9.765266742	0.464183134
7.993048032	-9.316380164	0.338592858
8.640306015	-9.358113164	0.230106788
9.236989527	-9.348455366	1.074706994
7.80377069	-9.848953288	0.926968322
7.960517015	-9.326376594	0.78691634
8.578370417	-9.34055765	0.693495421
9.221883803	-9.342947014	0.5933656
7.789177505	-9.836882982	0.466449243
7.952105429	-9.326405642	0.338068963
8.607498654	-9.380157582	0.229998412
8.501398946	-9.307415449	1.150307373
9.16427055	-9.331949644	1.069572174
7.815470508	-9.926131017	0.931971
7.912500232	-9.32792434	0.784994985
8.538230622	-9.354294973	0.692567198
9.147703769	-9.324841407	0.590430607
7.783679582	-9.892147671	0.467935216
7.901482999	-9.324828832	0.337131501
8.489747512	-9.309005228	0.227614077
8.452722757	-9.311332621	1.147581057
9.124459098	-9.348609898	1.068268144
7.808333266	-9.979908593	0.934766636
7.84911208	-9.310952808	0.781536604
8.468567925	-9.335332802	0.68923649
9.086973439	-9.319960453	0.588353564
7.809923669	-9.988406209	0.471352976
7.86833041	-9.343674129	0.336938471
8.45040367	-9.323155302	0.227325069
8.405437966	-9.31651827	1.145036535
9.058954733	-9.338643621	1.063948475
7.835218272	-10.07782618	0.941682086
7.827559196	-9.343404613	0.782241071
8.413142631	-9.331605663	0.687052397
9.059727601	-9.349229677	0.588443865
7.823387484	-10.06913623	0.474027735
7.831929081	-9.35857039	0.336607606
8.388970805	-9.312635833	0.22643997
8.348892988	-9.311121085	1.14121981
9.003282772	-9.338408695	1.06076976
7.77865526	-10.0686711	0.938592241
7.802049946	-9.371210243	0.782561268
8.35848789	-9.328370719	0.684922962
9.0018965	-9.346759727	0.586547365
7.794901937	-10.09625465	0.474176329
7.802541503	-9.381785679	0.336580039
8.337685981	-9.313001696	0.225825818
8.312998863	-9.328512989	1.140220122
8.949767095	-9.340080223	1.057835662
7.814529889	-10.17950558	0.946684823
7.815885427	-9.446617705	0.786852266
8.298618454	-9.318922675	0.682356684
8.959363317	-9.359900531	0.585644295
7.765714878	-10.12250062	0.47428779
7.786458116	-9.421090531	0.337131501
8.293123602	-9.320610807	0.225392299
8.242083881	-9.306259804	1.134404138
8.889451739	-9.334293126	1.054086529
7.80201309	-10.22801378	0.948965417
7.80524719	-9.492906758	0.788709606
8.258078068	-9.330879955	0.681373863
8.874832242	-9.328717483	0.581986835
7.777031217	-10.20190838	0.476888251
7.812715898	-9.512139033	0.33953032
8.260515505	-9.341515202	0.225283923
8.195069874	-9.310571306	1.131859615
8.821720629	-9.320262533	1.049440824
7.804332496	-10.29640913	0.953085289
7.815235439	-9.564721037	0.792680348
8.223477145	-9.349423412	0.680882423
8.832443105	-9.341383489	0.581083765
7.814481949	-10.31652978	0.48112331
7.802458866	-9.559295762	0.340357513
8.22455714	-9.358553498	0.225085231
8.138273043	-9.303438825	1.127951935
8.766451197	-9.318971189	1.046262226
7.782306876	-10.33305015	0.954262421
7.833033739	-9.646755985	0.797483707
8.166497279	-9.342282617	0.678534537
8.783219947	-9.346597561	0.579729189
7.802024425	-10.36600585	0.482312095
7.812766325	-9.63209789	0.342094571
8.13398182	-9.31295553	0.223387288
8.078983288	-9.293040107	1.123680668
8.71399607	-9.320341618	1.043409549
7.772080013	-10.38562246	0.956910894
7.809041016	-9.677732299	0.798060085
8.118151953	-9.344679628	0.676896482
8.730637966	-9.347947414	0.578148773
7.788140096	-10.41390186	0.483426553
7.77376876	-9.644347561	0.341680975
8.079811081	-9.308418121	0.222682821
8.036762356	-9.301957224	1.121772364
8.661615333	-9.321477522	1.040556871
7.772314846	-10.45263359	0.960883603
7.796169493	-9.722665783	0.799789275
8.065952805	-9.342333168	0.674930839
8.691723102	-9.363706408	0.577471485
7.762114425	-10.44576679	0.483798069
7.779765003	-9.712622883	0.34325263
8.04207213	-9.322564252	0.222429948
7.967315895	-9.27897023	1.116047101
8.624186305	-9.338488367	1.039497339
7.729542669	-10.46199146	0.959559367
7.781229855	-9.765269587	0.80132636
8.010595048	-9.335966137	0.672692208
8.63044076	-9.355083849	0.575304081
7.729437245	-10.46872743	0.483760905
7.78167945	-9.77633216	0.344658852
7.995211252	-9.325938748	0.221924173
7.925881676	-9.288218491	1.114229635
8.562472916	-9.328924202	1.035503709
7.700360229	-10.48967531	0.959927187
7.755570365	-9.794572643	0.801774706
7.96183001	-9.33694442	0.670999555
8.551065312	-9.32629307	0.571917583
7.69787432	-10.49319792	0.483798069
7.805600814	-9.868369526	0.347057671
7.939328578	-9.318459595	0.221165525
7.910230956	-9.327682131	1.116047101
8.506271765	-9.32495914	1.032162033
7.710455705	-10.57126388	0.965224192
7.826688713	-9.946940844	0.812277998
7.911198592	-9.335427055	0.66914305
8.512319255	-9.34140763	0.571240236
7.720975886	-10.59267508	0.487290126
7.780847987	-9.899343284	0.347305835
7.885504853	-9.313014747	0.220461058
7.859114473	-9.325253839	1.112866477
8.463566049	-9.335506231	1.030450427
7.641119042	-10.54399453	0.960589335
7.796749926	-9.971692316	0.812342072
7.863867799	-9.337506118	0.667559652
8.467525944	-9.349708278	0.570156564
7.696061732	-10.62683432	0.487773072
7.778129727	-9.958619388	0.348546595
7.846596066	-9.324922135	0.220172049
7.812564136	-9.327944992	1.110321955
8.388851202	-9.310337351	1.024826728
7.569108631	-10.51235372	0.955586658
7.780815285	-10.01447888	0.813879098
7.823648031	-9.347805025	0.666576772
8.42744091	-9.363019627	0.569388976
7.728208656	-10.74043386	0.491896641
7.757346408	-9.995070409	0.348987759
7.808970889	-9.338213424	0.219919162
7.807481889	-9.380190141	1.113684372
8.344290575	-9.318210514	1.022870623
7.510710355	-10.49902555	0.952276037
7.792134657	-10.09280714	0.818298186
7.803872131	-9.382511447	0.667341201
8.3660403	-9.352348061	0.567176392
7.714399308	-10.79091944	0.493122589
7.77548292	-10.0821474	0.351193578
7.796260878	-9.381351036	0.220370741
7.821828793	-9.456279185	1.119863943
8.299761397	-9.325897811	1.020914518
7.460554077	-10.49681932	0.949995385
7.788467898	-10.15229572	0.82118019
7.783319889	-9.41641405	0.668051033
8.297483301	-9.333174591	0.564467182
7.684729271	-10.81942491	0.493345481
7.795589162	-10.17260341	0.353509665
7.80118664	-9.446084734	0.221328082
7.813649379	-9.505619698	1.122862891
8.240736358	-9.316976009	1.017165386
7.416810163	-10.50336516	0.948524044
7.763334787	-10.18407927	0.821820642
7.81840686	-9.518178343	0.673565833
8.255581483	-9.343614714	0.563564112
7.679731605	-10.88295809	0.495165836
7.777061003	-10.21317289	0.354088695
7.797542152	-9.50088891	0.222050609
7.82036057	-9.573507405	1.128042773
8.192372427	-9.319757794	1.014720284
7.3771054	-10.51545681	0.947567628
7.741694888	-10.22057701	0.822845365
7.81316241	-9.571514234	0.675640671
8.201170296	-9.33962299	0.561803093
7.793339953	-10.2999595	0.356266946
7.762669541	-9.517793253	0.221888052
7.824217835	-9.638434082	1.132859187
8.138824284	-9.316324599	1.011623108
7.327702097	-10.51349436	0.945360586
7.810521385	-10.37743624	0.833540822
7.800744833	-9.61637687	0.677114932
8.144233757	-9.332374575	0.559861531
7.779124109	-10.34699142	0.357066572
7.798906161	-9.622345176	0.223766612
7.812743285	-9.684871061	1.135494547
8.098441602	-9.327703966	1.010156117
7.28121928	-10.51542882	0.943521307
7.791795705	-10.41893157	0.834949816
7.776218861	-9.646482493	0.677551715
8.105090855	-9.345242113	0.559139063
7.783238261	-10.4188591	0.358720929
7.781891929	-9.661800384	0.224127876
7.803548894	-9.734435284	1.138493494
8.052858493	-9.332886475	1.008036935
7.233663417	-10.51553244	0.941534982
7.762770237	-10.44679334	0.835270013
7.812135748	-9.752120218	0.683284907
8.049641041	-9.339040096	0.557287743
7.716566094	-11.22507596	0.50638498
7.767919275	-10.46516276	0.359492958
7.782827211	-9.723878799	0.225012975
7.78978061	-9.778582776	1.140856223
8.002777823	-9.332580699	1.005347335
7.190676937	-10.5220316	0.940137193
7.732461955	-10.47296824	0.835462178
7.80332381	-9.802603286	0.685141354
8.003404639	-9.343207498	0.556068589
7.726876247	-10.47687779	0.359079362
7.812084159	-9.822048219	0.226728978
7.796830005	-9.849284523	1.146308854
7.947602589	-9.325986507	1.00200566
7.242947102	-10.6686343	0.951246069
7.697933553	-10.49342318	0.835205997
7.783744333	-9.839810405	0.686069577
7.938438995	-9.325120069	0.553539982
7.713604579	-10.52633657	0.359961689
7.794933338	-9.862442287	0.227108302
7.792436184	-9.906033207	1.15012558
7.909292084	-9.338917012	1.000783168
6.9876867	-10.36090297	0.921892092
7.751525015	-10.63473364	0.844556476
7.797331663	-9.919379889	0.689946322
7.901404995	-9.339515868	0.552952995
7.702455191	-10.57904374	0.360954315
7.793046945	-9.922480296	0.227939205
7.825178829	-10.01070704	1.159485892
7.852363915	-9.329586964	0.997196995
6.973074879	-10.40797683	0.924172686
7.61408632	-10.51378671	0.833092535
7.799440005	-9.984960084	0.692840187
7.863071102	-9.352243806	0.552275707
6.981139357	-10.42709574	0.466486406
7.68929772	-10.62935262	0.36186421
7.766259562	-9.951072001	0.228047581
7.829250598	-10.07949617	1.164665774
7.821786194	-9.3513411	0.996952497
6.940005949	-10.42766044	0.924025581
7.570720323	-10.52170616	0.831875647
7.828769471	-10.08614205	0.698191135
7.832420434	-9.374023199	0.552140226
6.970699588	-10.48091572	0.467935216
7.727826884	-10.75192158	0.365228087
7.787162483	-10.04121878	0.229564892
7.814719426	-10.12475355	1.167119458
7.807713184	-9.392922254	0.998827063
6.899731834	-10.43642374	0.92292206
7.489653541	-10.47668924	0.826495911
7.801447732	-10.11485732	0.698518781
7.818302619	-9.415685872	0.553178777
6.920333596	-10.47473741	0.466709297
7.693642068	-10.77395249	0.365172923
7.769136329	-10.08169359	0.229944216
7.7981659	-10.16764692	1.169300394
7.811866268	-9.456788997	1.003065193
6.872060356	-10.4642121	0.923510597
7.450541618	-10.48985428	0.825727368
7.799534165	-10.17678542	0.701139657
7.799551804	-9.4519566	0.553901186
6.875554527	-10.4767037	0.465854835
7.70740357	-10.86354283	0.367406339
7.763092052	-10.13802911	0.230684819
7.77116048	-10.1970679	1.169936613
7.794831986	-9.495347264	1.004613839
7.407967718	-10.49798603	0.824574555
7.787634101	-10.22608608	0.702886908
7.802189459	-9.514464001	0.556158891
6.826462765	-10.47179709	0.464703214
7.6918919	-10.91246584	0.36826107
7.77251627	-10.21510914	0.231895046
7.765691303	-10.25499914	1.173844175
7.78582472	-9.543929736	1.007221901
7.358539148	-10.49615016	0.822653259
7.770684708	-10.26903925	0.704197316
7.784322104	-9.552295214	0.55697166
7.614224847	-10.87296531	0.366137982
7.767068796	-10.27320168	0.232671755
7.784751967	-9.60261175	1.010889613
6.753329231	-10.49263451	0.920494245
7.312614228	-10.49902279	0.821116174
7.779348048	-10.34630294	0.707855611
7.791443811	-9.621159133	0.559590568
7.70128867	-11.0694126	0.371955813
7.763138989	-10.33375391	0.233502673
7.790895593	-9.670689509	1.015535318
6.717883604	-10.50826253	0.920052872
7.278665406	-10.51894636	0.820924009
7.77804824	-10.41091631	0.710640339
7.77316339	-9.659026865	0.560403337
7.678090909	-11.1086116	0.372479707
7.761303347	-10.3975841	0.234405832
7.745805097	-10.42676539	1.185294585
7.771155477	-9.706994792	1.016839348
6.666902426	-10.49935656	0.917477951
7.224877144	-10.50997762	0.818490351
7.759164958	-10.45236891	0.711841552
7.751604164	-9.692971329	0.560990383
7.765700333	-10.47033323	0.235507684
7.719102403	-10.45769117	1.186112479
7.813316375	-9.821265961	1.026293836
6.609654937	-10.4801149	0.914020226
7.112118271	-10.4142457	0.809331978
7.71342895	-10.45764216	0.710585742
7.803249858	-9.819161044	0.566905488
7.739472817	-10.50215751	0.235688316
7.820852623	-9.892884191	1.031265461
6.562118505	-10.47583377	0.911886678
7.042596451	-10.38068594	0.80504098
7.673045802	-10.46998231	0.709821312
7.778660661	-9.850111268	0.567311873
7.709578786	-10.52907914	0.235760571
7.800931556	-9.930155987	1.03265103
6.523099609	-10.48490813	0.910930321
7.010158095	-10.4014162	0.804976906
7.723762273	-10.60728736	0.717520146
7.766288904	-9.896720025	0.568621328
7.707826608	-10.5947249	0.236699851
7.798027765	-9.989395828	1.036318742
6.479368876	-10.48620647	0.909311816
6.968220498	-10.40794741	0.803824092
7.747370423	-10.70859616	0.722761898
7.793634262	-9.994551739	0.572865775
6.98611052	-10.44649645	0.346644074
7.728000716	-10.69125081	0.238325538
7.818658182	-10.07942425	1.043165051
6.438821297	-10.49243556	0.908134685
6.924650996	-10.41182668	0.802479173
7.73079872	-10.75501642	0.724290757
7.76476997	-10.02078365	0.573001255
6.944625092	-10.45372575	0.346175344
7.745322252	-10.78475091	0.239878969
7.822380344	-10.14835945	1.047810756
6.399853268	-10.50107005	0.907178269
6.861320232	-10.38556148	0.798828627
7.697186154	-10.77787063	0.7242361
7.808953229	-10.14191776	0.578555157
6.919678111	-10.48582805	0.346533776
7.738331639	-10.84508718	0.240691813
7.800905377	-10.18497003	1.049114787
6.360377175	-10.50871011	0.906148301
6.827782559	-10.40406006	0.798636521
7.564122396	-10.66055398	0.714790016
7.803296417	-10.19915014	0.580451598
6.891859443	-10.51369626	0.346754373
7.661655428	-10.80760146	0.239337074
7.780486507	-10.22313049	1.050581895
6.273647253	-10.43756834	0.898350045
6.787656719	-10.41241845	0.797675814
7.667728989	-10.87712844	0.72773066
7.786479608	-10.24212811	0.581535329
6.848662593	-10.5180366	0.34620291
7.78395374	-10.29305992	1.055309021
6.226772584	-10.43193281	0.896216498
6.749171014	-10.42314122	0.796907271
7.673273398	-10.95621664	0.731443553
7.776697487	-10.29466493	0.583160867
7.663410106	-10.95189463	0.241486596
7.81939614	-10.40613374	1.064437472
6.184567832	-10.43382965	0.894745157
6.712842812	-10.43708383	0.79639491
7.757670818	-10.33525333	0.584109058
6.168852719	-10.41477483	0.449992013
7.787433684	-10.43007447	1.064437472
6.148987057	-10.44673787	0.894230173
6.684014115	-10.46267579	0.796779181
7.577514024	-10.96202415	0.728713481
7.774302871	-10.42386799	0.587766518
6.137885262	-10.43537409	0.45006631
7.751241092	-10.44831335	1.063866936
6.113888603	-10.46038736	0.893788741
6.65134906	-10.48228942	0.796715165
7.132344354	-10.38599593	0.688963442
7.744665405	-10.45088119	0.58794718
6.104328823	-10.45156668	0.449954849
7.695495197	-10.43995349	1.0606068
6.077262597	-10.47133249	0.893126652
6.604792117	-10.47985146	0.794985975
7.099321105	-10.40617934	0.688854246
7.711381447	-10.47298315	0.587856819
6.067723245	-10.46246568	0.449620527
7.717608594	-10.53748979	1.068105184
6.025190164	-10.45536519	0.890183852
6.553018365	-10.46876678	0.792616332
7.061200298	-10.41881846	0.688253669
7.686882618	-10.50707298	0.588443865
6.022630198	-10.45851625	0.448654634
7.017548575	-10.41527371	1.146036223
7.726294602	-10.61752922	1.073810421
5.983179689	-10.45648896	0.888712511
6.507170547	-10.46678707	0.790951158
6.99518579	-10.3899081	0.684922962
7.675169108	-10.55888894	0.590024223
5.986547688	-10.47000421	0.448357445
6.416085122	-10.33233721	0.335477144
6.982238257	-10.43178952	1.14549096
7.69426813	-10.6419906	1.07389196
5.94171113	-10.45832062	0.887314664
6.456153602	-10.45613297	0.788645531
6.960501226	-10.4071701	0.684649913
7.71584986	-10.68361825	0.595668425
5.946504318	-10.47441714	0.447763038
6.979840393	-10.44555137	0.226963805
6.946341254	-10.44735665	1.144854859
7.547031	-10.50608133	1.057835662
5.902737599	-10.46433918	0.886284695
6.391177991	-10.4222953	0.784610714
6.9313025	-10.43263392	0.684922962
7.710409839	-10.74538713	0.597790649
5.911396908	-10.48738765	0.447540146
6.948867019	-10.46858219	0.226999925
6.899438194	-10.44618225	1.142401175
7.50781547	-10.5194509	1.056857668
5.866219996	-10.47456849	0.885622607
6.357615238	-10.43929635	0.784418607
6.865712824	-10.40301468	0.681592255
7.689585019	-10.78607427	0.598738899
5.86943375	-10.48803316	0.446797144
6.914515558	-10.48651298	0.22692767
6.853153889	-10.44565084	1.140038446
7.444375527	-10.49853225	1.052456461
5.802070841	-10.43498957	0.880767034
6.821173419	-10.40482305	0.680336385
7.620658156	-10.75907172	0.595939388
5.827522306	-10.48852063	0.446054172
6.879023804	-10.50265871	0.226819294
7.399503478	-10.50339638	1.050663316
5.808104219	-10.52171555	0.886579022
6.778866861	-10.40980261	0.679298966
7.618659065	-10.82651745	0.598377694
5.782284653	-10.48272462	0.445051116
6.809692166	-10.46672452	0.225590991
6.205836641	-10.40113801	1.218955135
7.352385384	-10.50481795	1.048544251
5.857274394	-10.68816231	0.899085686
6.224458752	-10.43565928	0.779807354
6.769132869	-10.46492564	0.681537657
7.620323852	-10.8997827	0.601132025
5.79137469	-10.57579345	0.448245984
6.17846207	-10.42783196	1.219856357
7.309880543	-10.51259595	1.04707726
5.828745586	-10.71396623	0.899747834
6.188344495	-10.44783766	0.779294993
6.701912151	-10.43103962	0.677988557
7.561203198	-10.88618845	0.599100103
5.764151867	-10.60316871	0.448654633
6.166770245	-10.42385722	0.334070922
6.143918023	-10.44245073	1.219355678
7.253801906	-10.500532	1.043654048
5.801534954	-10.74232819	0.900630639
6.132988667	-10.42720513	0.776348973
6.673101905	-10.45660207	0.678316145
5.781426262	-10.71314294	0.452555311
6.13425475	-10.44186548	0.334043354
6.10382144	-10.44750536	1.217753505
7.206325734	-10.50054941	1.041453445
5.76525221	-10.75392389	0.900115655
6.1039893	-10.45114282	0.776733245
6.628694602	-10.45762862	0.677060334
5.773069896	-10.77663537	0.454487097
6.098161305	-10.45372853	0.333822758
6.495116077	-10.25638927	0.219323071
6.054265116	-10.43605978	1.214248751
7.15218036	-10.49049241	1.038274847
5.587462509	-10.49952103	0.877382861
6.056877505	-10.44392234	0.774811889
6.594451836	-10.474536	0.676841884
7.076633695	-10.39136928	0.568260123
5.748894649	-10.8110601	0.455192935
6.061050529	-10.46373885	0.333547027
6.013776557	-10.43992856	1.212546443
5.552894847	-10.51220449	0.87701504
6.017835451	-10.45034729	0.773915256
6.568638392	-10.50487802	0.677497118
7.036883458	-10.40144797	0.567627957
5.825787604	-11.03721276	0.463960213
6.021942505	-10.47015314	0.333161027
5.971345108	-10.44019176	1.210443591
7.024806576	-10.44073693	1.029064857
5.515524033	-10.51947519	0.876205788
5.973857413	-10.44796914	0.772378231
6.51162004	-10.48511329	0.67493084
7.001595774	-10.41801281	0.567357053
5.68940769	-10.85940834	0.455750179
5.979381934	-10.47034974	0.332581997
5.928477575	-10.43942812	1.208240603
6.987203621	-10.45395403	1.028249824
5.468031581	-10.50715294	0.87377803
5.932907502	-10.45062571	0.771225417
6.458453851	-10.471047	0.672746806
6.968491359	-10.43778222	0.567266752
5.554174276	-10.68087371	0.447540146
5.933425551	-10.46429718	0.331809968
5.892024194	-10.44976743	1.207339382
6.93029002	-10.43797651	1.02458223
5.436685959	-10.52565183	0.873925136
5.873866144	-10.42096443	0.767702962
6.412738024	-10.46867396	0.671327143
6.923736693	-10.43996418	0.566228201
5.534212604	-10.72272779	0.448580336
5.895409202	-10.47199879	0.331479073
4.768161451	-9.291247391	1.155165712
5.854104755	-10.45737663	1.206137752
6.890551912	-10.44754052	1.023441158
4.868890123	-9.497727108	0.787334547
5.833095014	-10.42326106	0.766550149
6.374881691	-10.47891541	0.670726507
6.876836085	-10.43863302	0.565009048
4.757305493	-9.28724528	0.387915176
5.853499695	-10.47258531	0.330927641
4.734221176	-9.295203875	1.153846305
5.819577269	-10.47093894	1.205637073
6.844812158	-10.44778926	1.021403515
4.72893325	-9.294848272	0.769310162
5.789457342	-10.42017066	0.765013064
6.332375974	-10.48133127	0.66963449
6.821804265	-10.42457341	0.563112606
4.731507666	-9.30714161	0.388138068
5.816977226	-10.48262683	0.330679477
4.70254271	-9.303475073	1.153076808
5.836455414	-10.57760208	1.215850925
4.69679896	-9.302191028	0.768721567
5.749749497	-10.42390216	0.763988341
6.266798739	-10.44505491	0.666085391
6.762567519	-10.40357413	0.560854902
4.702481343	-9.320722057	0.388100934
5.767907478	-10.46978045	0.329714448
4.662391002	-9.294759723	1.150218289
5.827876852	-10.63908898	1.220857714
6.203994135	-10.40439335	1.105414703
6.749736271	-10.44188158	1.01675781
4.661089501	-9.302289976	0.767544493
5.699049331	-10.40735692	0.761490609
6.221435839	-10.44192947	0.664665728
6.73170192	-10.42595104	0.560945203
4.672968801	-9.333317666	0.388026636
5.774612138	-10.55846539	0.331947834
4.63030991	-9.30190142	1.149338763
5.780473937	-10.62982212	1.217753505
6.172044734	-10.42337864	1.105414704
6.718746433	-10.46421714	1.016920887
4.627200288	-9.305831039	0.766661689
5.733344157	-10.54666333	0.770392801
6.169033153	-10.42659249	0.662481694
4.638977005	-9.336870843	0.387580824
5.748392355	-10.58755263	0.332306267
4.59866909	-9.309825431	1.148569148
5.786118873	-10.7184254	1.225864505
6.139532425	-10.44140669	1.105323748
6.687147009	-10.48562119	1.017002308
4.587596799	-9.2976241	0.764822468
5.817074318	-10.77936907	0.786083724
6.132463615	-10.43772214	0.661990254
4.588215003	-9.306244639	0.385723364
5.739122413	-10.64825543	0.333657325
4.562648192	-9.308717495	1.146700066
5.741929267	-10.71507855	1.223461245
6.097426863	-10.44299271	1.103506282
6.645879514	-10.49177432	1.015616856
4.552033709	-9.297324377	0.763645337
5.773138194	-10.77693239	0.784610714
6.08531711	-10.43061303	0.660352199
4.552176923	-9.305017668	0.385091823
5.74179458	-10.73191822	0.335725278
4.520157225	-9.294068647	1.14318196
5.758558527	-10.82575805	1.234075641
6.057367646	-10.4478663	1.102052287
6.605167815	-10.49861718	1.014312708
4.517823068	-9.299584629	0.762688921
5.869363775	-11.03778163	0.802287067
6.047281762	-10.43886502	0.659696965
4.517935228	-9.307252849	0.384608877
5.722908174	-10.77596853	0.336552472
4.485574743	-9.295360772	1.141642731
6.010877071	-10.44137141	1.099416808
6.561836162	-10.50108196	1.012601219
4.484074617	-9.302620533	0.761806116
5.874136942	-11.12898872	0.807602729
6.009252851	-10.4469828	0.659041791
4.484589651	-9.311165857	0.384200227
5.702406905	-10.81735075	0.337296934
4.446305086	-9.286666329	1.13889424
5.714656266	-10.9040706	1.238982296
5.975355888	-10.45371184	1.098780708
6.518551509	-10.50338009	1.010889612
4.449920033	-9.304637274	0.7608497
5.966774317	-10.44716152	0.657895117
4.451262809	-9.314962834	0.383791578
5.694681713	-10.88350782	0.338813425
4.414381705	-9.293081263	1.138014596
5.686226857	-10.93126155	1.24008379
5.936866133	-10.46073486	1.097599343
6.462763503	-10.48514967	1.007221901
4.40895492	-9.292116519	0.758716211
5.584283964	-10.73894741	0.77679726
5.916470628	-10.43328048	0.655874877
4.420095217	-9.323157523	0.383568686
5.680615239	-10.93818676	0.339971483
4.380765209	-9.295791482	1.136695307
5.881767409	-10.43812272	1.093328193
6.411832338	-10.47432573	1.004287802
4.379577072	-9.303794616	0.758569107
5.534834129	-10.72410488	0.774491693
5.870227431	-10.42615078	0.65429142
4.377435969	-9.306832616	0.382342738
5.374983527	-10.42777678	0.323593289
4.345069346	-9.293881465	1.134826343
4.758766415	-9.287051191	1.05022595
5.841450371	-10.44134397	1.091783242
6.381738261	-10.49735366	1.004613839
4.352278836	-9.319898081	0.758789764
4.761221881	-9.295040893	0.670227016
5.831878965	-10.43278097	0.653581588
4.346326802	-9.314784762	0.382119846
4.749758555	-9.28463947	0.287666053
4.310681081	-9.29454383	1.133287112
4.735663774	-9.312248896	1.051427579
5.809389025	-10.45921585	1.091783241
6.338169978	-10.49811258	1.002820694
4.321988096	-9.329587451	0.758495496
4.719567709	-9.283805766	0.668369735
5.7988751	-10.4488776	0.653472393
4.315210599	-9.322634237	0.381896955
4.724419205	-9.305406658	0.287859053
4.279237878	-9.301404442	1.132517498
4.701244048	-9.315187183	1.050125814
5.796508657	-10.51187231	1.09541829
4.288348158	-9.331929089	0.757612691
4.687467136	-9.291114182	0.667857374
5.752335468	-10.44038307	0.651834338
4.284503646	-9.331288937	0.381711197
4.690001047	-9.308252698	0.287500621
4.248617816	-9.309968632	1.131967824
4.674425733	-9.333125163	1.050526357
5.845047031	-10.67723429	1.11077638
6.213979136	-10.43660954	0.993284785
4.239842939	-9.301483727	0.754081355
4.650898748	-9.28938875	0.66670456
5.704944878	-10.42994904	0.650087088
6.196843101	-10.420237	0.54798608
4.252127866	-9.336204612	0.381376874
4.652033466	-9.30382156	0.286921591
4.215526879	-9.312998979	1.130758446
4.626285318	-9.308217721	1.046120381
5.746165192	-10.57349158	1.098144607
6.173307425	-10.44103991	0.991899216
4.210054156	-9.311721488	0.753860698
4.616605032	-9.291995211	0.665872002
5.671489582	-10.44476955	0.649923293
6.16890875	-10.4460818	0.548347285
4.215236548	-9.330991642	0.380633872
4.594588191	-9.259845672	0.285129369
4.183271462	-9.31772719	1.129769008
4.586263687	-9.299166369	1.04351685
5.848929395	-10.84173651	1.124135093
6.135189893	-10.44961617	0.990921222
4.176569514	-9.313674054	0.752977835
4.57969125	-9.289108814	0.664655115
5.663108008	-10.50606766	0.652653365
6.135820977	-10.46323507	0.548256984
4.172288551	-9.311962169	0.379333627
4.574988685	-9.291834066	0.285680831
4.141727359	-9.30146154	1.126250784
4.555526212	-9.308724374	1.043016171
5.762043736	-10.75954932	1.11377521
6.098082535	-10.45977961	0.990106188
4.143112627	-9.315508697	0.75209503
4.545908527	-9.292358667	0.663886631
5.595047118	-10.45648235	0.64850363
6.100674938	-10.47683045	0.54798608
4.132743359	-9.300061747	0.3783306
4.55304233	-9.319298543	0.286094398
4.107148513	-9.300486477	1.124601644
4.523469002	-9.315497	1.042215085
5.659357308	-10.64615437	1.100234703
6.050983288	-10.45256163	0.987661086
4.112903575	-9.324525793	0.751800761
4.515199634	-9.301772432	0.663566376
5.570434865	-10.48770787	0.649377256
6.059503335	-10.47993091	0.547173311
4.103385893	-9.310868646	0.378256303
4.519197125	-9.322429379	0.285763533
4.074608706	-9.303938704	1.123502295
4.489685772	-9.31857445	1.041013456
5.497469823	-10.41861349	1.074971274
6.003986311	-10.44515414	0.985215926
4.083077988	-9.334358616	0.751580045
4.481444843	-9.304792124	0.662797834
5.525659266	-10.48090019	0.647903054
6.009914358	-10.46814955	0.545592895
4.071199444	-9.315172776	0.377921951
4.477143308	-9.308324776	0.284908772
4.044857534	-9.313660715	1.123172443
4.45206414	-9.313453473	1.038910604
5.459473396	-10.42396206	1.073789792
5.966478144	-10.45400325	0.984319412
4.054818423	-9.34775661	0.751653598
4.44642276	-9.30499116	0.661837186
5.530052424	-10.56769404	0.652216582
5.969854719	-10.47265244	0.544870486
4.042601756	-9.327618765	0.377921951
4.447272815	-9.319309754	0.284826071
4.015871289	-9.325113026	1.123062414
4.417501064	-9.314482105	1.037508702
5.422414607	-10.43094267	1.072790221
5.933395242	-10.47052494	0.984156394
4.024544312	-9.35648861	0.75135933
4.413152222	-9.308669522	0.661132659
5.46906996	-10.52967129	0.648831277
5.928839722	-10.47526924	0.544057717
4.013571193	-9.339059918	0.377884817
4.414810844	-9.324779	0.284577907
3.988414337	-9.340131461	1.123392265
4.380007959	-9.309085189	1.035405851
5.39221433	-10.45106902	1.073153691
5.889515055	-10.46783131	0.982200288
3.991907546	-9.359618116	0.75062363
4.372255282	-9.295976474	0.659275378
5.453210293	-10.57835118	0.650796919
5.8810138	-10.465541	0.542612781
3.982549908	-9.345813154	0.377661925
4.382782439	-9.331041074	0.28435734
3.963615829	-9.361476907	1.124491732
4.340486024	-9.299037526	1.03280232
4.757797657	-9.29130312	0.952561394
5.852511556	-10.47714949	0.981385254
3.965893167	-9.378250895	0.751138614
4.331900149	-9.284024754	0.657482113
4.744901702	-9.274097486	0.569658904
5.832329782	-10.45387231	0.541077544
3.954247624	-9.358907715	0.377699059
4.352445976	-9.340818716	0.284247041
3.949110875	-9.407501875	1.128559629
4.309846254	-9.307795685	1.03230164
4.719344141	-9.286324586	0.950562076
5.825174708	-10.50377236	0.982200289
3.935559675	-9.386694957	0.750844345
4.30297731	-9.296365347	0.657418097
4.725468468	-9.306416746	0.57075092
5.812815064	-10.49443759	0.542251518
3.9328524	-9.388507862	0.378404897
4.319154677	-9.344146981	0.283943743
3.935506734	-9.456279488	1.132957261
4.27919372	-9.316453076	1.031800961
4.689934962	-9.298981694	0.950380342
5.823206274	-10.57659817	0.987335049
3.952677745	-9.509233146	0.759672628
4.271521624	-9.303174955	0.656969811
4.698691638	-9.324437863	0.570969312
5.778665937	-10.50871989	0.542070915
3.92741007	-9.456825627	0.380671036
4.286300277	-9.348267123	0.283668012
3.995562073	-9.684229005	1.15879373
4.244815776	-9.316862457	1.030399061
4.658263818	-9.307091987	0.94974424
5.805070884	-10.62065094	0.989780151
3.96300142	-9.617210031	0.767323778
4.23634148	-9.301705088	0.655945088
4.658450985	-9.315589515	0.569549708
5.766502547	-10.56322655	0.543967357
3.936802922	-9.562159657	0.384423119
4.240218998	-9.323156524	0.282509953
4.05500712	-9.914473406	1.184850138
4.206787747	-9.308987595	1.028095937
4.629244999	-9.32044779	0.949653343
5.833302384	-10.75054136	1.000212632
4.047748473	-9.909063299	0.789615141
4.20490842	-9.308291239	0.655496741
4.631624864	-9.333414794	0.569768099
5.808796064	-10.71876098	0.551056554
4.030169482	-9.874889591	0.396496725
4.204608219	-9.320631171	0.282041223
4.023076871	-9.92318247	1.184410374
4.17169713	-9.307322436	1.026493763
4.587421339	-9.307808647	0.946927087
5.785641146	-10.74118513	0.997685992
4.022194562	-9.933451326	0.790571556
4.171434609	-9.310219972	0.6547282
4.597675427	-9.336831314	0.569112866
5.794814892	-10.7717223	0.552862694
4.015220392	-9.925189686	0.398019833
4.174768226	-9.330749011	0.281958491
3.985572446	-9.917955837	1.18232147
4.137464918	-9.30734847	1.025091862
4.545280731	-9.294105509	0.944109932
5.846180182	-10.9337907	1.01390525
4.004701164	-9.97813866	0.793146477
4.137583709	-9.31111812	0.653895641
4.555857848	-9.32397846	0.567474811
5.73021192	-10.73040938	0.5498374
4.012273345	-10.00609736	0.400768917
4.134769798	-9.317930363	0.281186462
3.951816001	-9.921825701	1.181332032
4.106883949	-9.31544673	1.024591184
4.517180254	-9.308902285	0.94420077
5.555153081	-10.46659698	0.968996727
3.984391129	-10.0163242	0.795206413
4.105376094	-9.315549961	0.653319265
4.517647685	-9.318145916	0.566273599
5.690246355	-10.73469861	0.549160053
3.983401664	-10.02300335	0.400954646
4.09972103	-9.315932443	0.280745298
3.903840086	-9.889526859	1.176054757
4.075096665	-9.320709097	1.023790097
4.479959453	-9.304771796	0.942383246
5.526731837	-10.490645	0.969648742
3.955471844	-10.03314016	0.795574234
4.073579601	-9.320785132	0.652806902
4.480381794	-9.313965452	0.565181582
5.712640309	-10.8573105	0.554533353
3.952632696	-10.03517757	0.400954646
4.061124688	-9.305561599	0.280056
3.882533943	-9.924597832	1.178803365
4.045690319	-9.331341935	1.023589826
4.442806497	-9.300500476	0.940565722
5.494059286	-10.50666814	0.969567262
3.923583098	-10.04244152	0.795353518
4.048933364	-9.342395231	0.653447354
4.441463801	-9.306040224	0.563871114
5.625197389	-10.77118244	0.549250355
3.921099868	-10.04539425	0.400880349
4.040497085	-9.336324977	0.280607433
3.835181801	-9.892906232	1.173636001
4.014685217	-9.338225263	1.02298901
4.405722327	-9.296088332	0.938748256
5.462258569	-10.52435861	0.969648742
3.890594324	-10.0488517	0.794912145
4.013159744	-9.338269812	0.652294541
4.415883547	-9.325939718	0.5642533
5.50569641	-10.6216506	0.540761461
3.885575955	-10.04526107	0.400397402
4.011440518	-9.34775867	0.280579866
3.808733274	-9.914831512	1.174845378
3.982505269	-9.342260302	1.022087788
4.367859141	-9.289734818	0.936748938
5.432226613	-10.5454969	0.970056259
3.857603431	-10.05515352	0.794470713
3.982535097	-9.345948358	0.651974286
4.373241229	-9.309618983	0.562451451
5.766480857	-11.20879147	0.56975018
3.849374488	-10.04313793	0.399840158
3.980003186	-9.353583193	0.280386866
4.764082655	-9.307330501	1.23974109
3.77971152	-9.93018538	1.175285141
3.966220758	-9.383761729	1.025292134
4.341864067	-9.308506177	0.937294201
4.83409342	-9.455496186	0.86842122
3.823547317	-10.05855176	0.793808566
3.956562537	-9.364557313	0.652422632
4.337488862	-9.307606543	0.561523228
4.73901599	-9.281512118	0.471044054
3.810029497	-10.03247881	0.398948592
3.948179689	-9.358381909	0.280166269
4.73235762	-9.315705017	1.238916877
3.745370433	-9.93150438	1.174075763
3.95241063	-9.431675047	1.029197431
4.296975873	-9.28653498	0.933750049
4.72073069	-9.304075333	0.853180074
3.78985791	-10.06276766	0.793220029
3.929355998	-9.380333244	0.652678812
4.303885237	-9.309993729	0.560868053
4.707809538	-9.290661145	0.470773121
3.776065165	-10.03570365	0.39861424
3.927936248	-9.390738347	0.280772865
4.698837461	-9.320426298	1.237621669
3.711752491	-9.934568961	1.173086326
3.95246794	-9.5135872	1.036807752
4.252679068	-9.26528127	0.930296794
4.687681797	-9.30961241	0.85236504
3.753738562	-10.06033205	0.792116508
3.91625151	-9.430130897	0.655304635
4.273637703	-9.319523309	0.560649603
4.678834849	-9.304167812	0.47072797
3.741418732	-10.03694045	0.39820559
3.932802889	-9.484002493	0.283199281
4.659112843	-9.31259562	1.234678034
3.680911183	-9.944977198	1.172976296
3.95243806	-9.596508679	1.044518209
4.220519791	-9.270128041	0.9294789
4.654643078	-9.315034394	0.851550006
3.717669776	-10.05776996	0.791012988
3.926053388	-9.536227155	0.661837185
4.227248392	-9.293507866	0.558301775
4.640901018	-9.299707563	0.46977975
3.711646784	-10.05118383	0.39831705
3.924211578	-9.54594928	0.284688205
4.616831095	-9.29927208	1.231027963
3.648672279	-9.951557746	1.172426622
4.048591528	-9.916255497	1.077963685
4.190420076	-9.279402096	0.929115371
4.616744589	-9.310519395	0.849838399
3.683709334	-10.0606995	0.79035084
4.037430225	-9.892865448	0.685725833
4.193789104	-9.295511704	0.557646542
4.607471078	-9.3040548	0.469283064
3.672553641	-10.04000071	0.397425455
4.012979744	-9.847690197	0.293318451
4.584768596	-9.306265917	1.230085971
3.61167788	-9.944954113	1.170337717
4.023748583	-9.942464565	1.079465722
4.162745658	-9.294032312	0.929297165
4.580238133	-9.308542432	0.84837135
3.649086097	-10.061641	0.789541588
4.022404263	-9.943135264	0.688351656
4.161580193	-9.300131799	0.557155102
4.572737124	-9.305593783	0.468650897
