x	y	z
1.383068567	5.109908668	1.230925982
1.423340007	4.572339387	0.974979749
1.386995565	5.11062078	1.026173851
1.43138466	3.589648388	1.181204233
1.43129729	4.026484195	1.255758988
1.435420228	4.579643519	1.358887787
1.400829011	5.135774742	1.452521191
1.420920753	3.997292951	1.073316988
1.432249521	4.55754036	1.159544227
1.398224363	5.103762706	1.230472988
1.430890354	4.547387199	0.970590583
1.404228454	5.11202152	1.027315397
1.430611812	3.55596183	1.171558173
1.43554055	3.9994983	1.248710499
1.431447026	4.518349005	1.341997024
1.416578766	5.131452872	1.452521191
1.424334861	3.968278235	1.066694669
1.435634447	4.519782272	1.151052948
1.414656657	5.102264848	1.231152364
1.429688535	4.495351979	0.960415891
1.419116506	5.104851971	1.026744625
1.42533002	3.511680964	1.158404502
1.43603597	3.962602142	1.238560661
1.426231239	4.454373578	1.324288962
1.424787588	5.100137608	1.444887389
1.423620737	3.928343326	1.05712896
1.428999294	4.451512204	1.13477778
1.42635671	5.083833445	1.227755253
1.429080673	4.446165751	0.950839689
1.430517701	5.085353226	1.023700735
1.420514726	3.469235981	1.145835313
1.43368144	3.91853324	1.22615527
1.429522878	4.417936314	1.314753887
1.440952682	5.097598875	1.445413933
1.423674317	3.891182034	1.04829913
1.42375812	4.388872504	1.119917867
1.428115321	5.030710124	1.215978211
1.431211592	4.406345445	0.943258513
1.435094177	5.042226627	1.015900751
1.421659217	3.441880566	1.138235481
1.433064609	3.879915863	1.21544157
1.435295682	4.38975201	1.307670708
1.434037439	5.014312892	1.423039067
1.423849358	3.854966645	1.039714512
1.429951446	4.362321147	1.114256974
1.434132341	4.993539281	1.208051274
1.432628509	4.975535115	1.003344675
1.42485605	3.419847188	1.132389338
1.430883632	3.837743978	1.203600153
1.434570808	4.342388222	1.294866438
1.427161077	4.932971331	1.401190745
1.425170472	3.82242061	1.032111102
1.43507887	4.333005915	1.107888455
1.427706557	4.914288406	1.189932772
1.436356146	4.931528555	0.995354434
1.430154231	3.403117006	1.128297122
1.437243993	3.818968902	1.199089154
1.437528978	4.306935684	1.285603759
1.427386031	4.87764493	1.386712895
1.430789074	4.27605355	1.094443792
1.426300343	4.853814792	1.176343983
1.433169083	4.864945086	0.982798359
1.432750697	3.380222805	1.122158678
1.443843367	3.801087971	1.194859969
1.431982824	4.246888699	1.268985388
1.432760855	4.840865462	1.377499686
1.423673978	4.211804014	1.07911205
1.430086082	4.812069798	1.167284674
1.429867605	4.799368598	0.970432539
1.431085243	3.347672225	1.112804921
1.426649171	3.721388515	1.171177134
1.432596533	4.206043802	1.25808811
1.427411757	4.768979212	1.358283745
1.426854712	4.178907346	1.071800109
1.426340567	4.74609469	1.152336902
1.421079803	4.71693915	0.954642316
1.428855032	3.314285798	1.103158863
1.425596756	3.684781382	1.161027298
1.435477327	4.172514395	1.249370336
1.433931525	4.737799471	1.350649938
1.428262886	4.141437202	1.063308711
1.43636353	4.726785612	1.14871318
1.431253232	4.698470151	0.951788684
1.423635495	3.646428383	1.1503136
1.43437637	4.128100084	1.237383363
1.43095786	4.676182611	1.334329471
1.426577794	4.095739096	1.052694438
1.42768808	4.646940512	1.130368182
1.42947955	4.641515045	0.94113501
1.42813409	3.625083277	1.144956695
1.43237929	4.081916557	1.224851486
1.421917201	4.596196423	1.312744364
1.424626	4.05009045	1.042080279
1.428070435	4.597889917	1.119497128
1.429412875	4.591176903	0.93181308
1.424363866	3.583238537	1.133115277
1.432040744	4.041226521	1.213954211
1.418446404	4.535646465	1.296687113
1.426310906	4.015481875	1.034296511
1.430791131	4.557244413	1.110664316
1.425808966	4.530582837	0.920398494
1.426778962	3.557480202	1.126348719
1.423686419	3.978834525	1.196518657
1.426539428	4.512875711	1.29142247
1.423531882	3.969009456	1.023446437
1.428267746	4.500843615	1.097981401
1.422931779	3.516621454	1.114789117
1.42084777	3.932821257	1.183986782
1.428634256	4.471719411	1.280893076
1.429084263	3.946349191	1.01872897
1.429576279	4.457486101	1.088469213
1.419572554	3.477596684	1.10379349
1.42103738	3.895902551	1.174179313
1.431379305	4.433346756	1.271153438
1.428171078	3.906350987	1.009529948
1.426127714	4.400264901	1.0755598
1.423293918	3.456369209	1.0984367
1.428993343	3.880689318	1.170910115
1.431209274	4.386745187	1.259044751
1.419613507	4.334776654	1.060612028
1.420641676	3.420088999	1.088286862
1.424465346	3.832094943	1.157560943
1.428652736	4.333773415	1.245093332
1.418218696	4.286015252	1.04974086
1.425566303	3.402441021	1.084057793
1.426412915	3.801582076	1.149660465
1.43218667	4.300080508	1.236669885
1.421479198	4.252083363	1.042493527
1.428186911	3.771093609	1.141759988
1.433373803	4.260006429	1.22640382
1.418312018	4.199716345	1.030716486
1.423947164	3.725351436	1.129228113
1.419736864	4.177035461	1.203765738
1.419239639	4.160314878	1.022110172
1.416323787	3.671591801	1.114244341
1.419701424	4.135249258	1.192973241
1.422794836	4.129235522	1.015542217
1.41257258	3.628674088	1.102529879
1.418790953	4.091680017	1.181654199
1.424892193	4.094493927	1.008068271
1.413848441	3.599247603	1.094901796
1.4217718	4.059992461	1.17375718
1.427112906	4.060697769	1.00082094
1.415311603	3.5707422	1.087546107
1.421676786	4.020139875	1.163491116
1.420900623	3.552982631	1.083459614
1.427190544	3.996679852	1.157963145
1.4166735	3.511130697	1.072017546
1.422757219	3.945997527	1.144538269
1.427926549	3.922576784	1.139010413
1.413997108	3.847547327	1.118478167
1.41035876	3.801584284	1.10636948
1.412203561	3.771039375	1.098735678
1.414556432	3.742323698	1.091628418
1.412620155	3.702812987	1.081362236
1.417040845	3.680455619	1.076097596
1.412253577	3.634725683	1.063988909
1.417411487	3.615107185	1.059513914
2.636633878	2.625730059	1.137358576
2.652153613	2.625028852	1.14057389
2.675193305	2.631633988	1.147004635
2.697614318	2.637453996	1.153142962
2.714609407	2.637829237	1.156942994
2.728880345	2.635467652	1.159573705
2.749371641	2.639003336	1.164835243
2.76506669	2.637817359	1.168050559
2.779392284	2.635243766	1.170681272
2.80973582	2.647691709	1.180035028
2.8248256	2.645596096	1.182958039
2.839929004	2.643432977	1.185881168
2.85364151	2.639903205	1.188219579
2.870175254	2.638903025	1.191727195
2.892377212	2.64298731	1.197573337
2.903303913	2.636672696	1.19874254
2.917058786	2.632879306	1.201080952
2.925834568	2.624555922	1.201373252
2.94101123	2.621931163	1.204296381
2.965504394	2.62748267	1.211019427
2.983599644	2.627220051	1.215111644
3.016114512	2.639467191	1.225050005
3.047289056	2.650284229	1.234403762
2.799666318	2.627691373	1.128322232
3.072046391	2.655306199	1.241126806
2.832269992	2.641995353	1.138190138
3.091785318	2.655839154	1.245803628
2.84528714	2.637859535	1.140163763
3.105010005	2.650687423	1.247849851
2.861128153	2.636269282	1.143265113
3.121149199	2.647954603	1.251065166
2.876985903	2.634606745	1.146366347
3.131451738	2.640215872	1.25194207
2.894279451	2.634162971	1.150031555
3.15419766	2.642880214	1.257788212
2.920135615	2.641361183	1.157080042
3.184338214	2.651549043	1.266557366
2.927512008	2.631748691	1.156798113
3.203509695	2.650912538	1.270941886
2.950597136	2.636178534	1.162718879
3.222707008	2.650182961	1.275326403
2.960823217	2.629024994	1.16356467
3.23896805	2.646940116	1.278541833
2.976788092	2.626912046	1.166666018
3.253012365	2.641813665	1.280880244
3.010801072	2.640541109	1.176815855
3.270776819	2.63962896	1.284680162
3.036246308	2.646421268	1.183582413
3.288558299	2.637359987	1.288480194
3.053778504	2.645260141	1.187247621
3.307104252	2.635602786	1.292572412
3.073513516	2.645894006	1.191758621
3.298231659	2.630320359	1.113037293
3.33916506	2.644443422	1.301926169
3.085261582	2.639570744	1.193168387
3.316894968	2.628596812	1.116608802
3.368304868	2.650746215	1.31011072
3.098461922	2.634443085	1.1951419
3.339376907	2.629774709	1.121455853
3.401281182	2.659840765	1.319756778
3.115323745	2.632355654	1.198525178
3.36494314	2.63322249	1.127323334
3.41999731	2.657608409	1.323849112
3.130732483	2.628955415	1.201344597
3.386745111	2.633570472	1.131915391
3.439488648	2.655870646	1.328233632
3.157935635	2.635320956	1.208675015
3.407050651	2.632627062	1.135997118
3.462036154	2.65636697	1.333787472
3.180037666	2.637256836	1.214031921
3.445788451	2.645715906	1.146201433
3.485379614	2.657329515	1.339633498
3.195517474	2.633590027	1.216851338
3.472338668	2.649208033	1.152324024
3.507236894	2.65701877	1.344895038
3.219169646	2.636540195	1.22277199
3.494319247	2.649056999	1.156915965
3.531416734	2.658324124	1.351033478
3.255519847	2.649665735	1.233485687
2.979929968	2.618681106	1.123234627
3.517876379	2.649959414	1.162018123
3.549511303	2.654923905	1.354833396
3.280044826	2.652939239	1.239688383
3.008241507	2.627248186	1.130862709
3.53450473	2.645527555	1.164824309
3.573758628	2.656001046	1.36097184
3.298638047	2.651278573	1.243635522
3.038086865	2.636927663	1.139035583
3.55812175	2.646212016	1.169926468
3.598815039	2.657522447	1.367402468
3.320250466	2.651923786	1.248710499
3.054176968	2.63450758	1.142032384
3.587997155	2.651373131	1.177069488
3.620059028	2.656086119	1.372371705
3.341146302	2.651864839	1.253503429
3.06662793	2.628882365	1.143666979
3.620275726	2.658092408	1.184977832
3.642100665	2.655107873	1.377633243
3.365839303	2.654673239	1.259706126
3.084200197	2.627573412	1.147208569
3.637006216	2.653241559	1.18778402
3.661846942	2.652336325	1.382017763
3.390581048	2.657354928	1.265908823
3.112073896	2.634885603	1.154564259
3.656872537	2.650582819	1.191610639
3.686267559	2.652820218	1.388156206
3.413099889	2.658141072	1.271265613
3.136339929	2.638953795	1.160557743
3.668910295	2.642176374	1.192886178
3.707613673	2.650954328	1.393125328
3.431102725	2.655290967	1.274930823
3.154755255	2.63796028	1.164371728
3.689580865	2.639910007	1.196967904
3.729762684	2.649536025	1.398386867
3.452162437	2.654694518	1.279723869
3.176893816	2.639953114	1.169547915
3.712636022	2.639222518	1.201814954
3.757406914	2.651866682	1.405694514
3.472488185	2.653411524	1.284234869
3.192397042	2.636320852	1.17227232
3.752307203	2.650132029	1.212019384
3.450986894	2.63698181	1.098825509
3.781968538	2.651856373	1.411832842
3.492838372	2.652028505	1.288745868
3.207907986	2.632618172	1.174996611
3.773875661	2.648049227	1.21635622
3.474502871	2.638106807	1.103730971
3.801856839	2.648440546	1.416217476
3.516276442	2.652856923	1.294384705
3.230882485	2.634926167	1.180445192
3.790707145	2.642541135	1.219162406
3.495736598	2.637360573	1.107900556
3.825691595	2.647648575	1.422063501
3.538984602	2.652990927	1.299741495
3.259881439	2.641964297	1.188073275
3.805950684	2.63585342	1.221458377
3.517773938	2.63709033	1.112315472
3.852709397	2.648902527	1.429078849
3.560187518	2.651864035	1.30453454
3.280710614	2.642210728	1.192704674
3.825968013	2.632385602	1.225284995
3.539842414	2.636709567	1.116730504
3.871873849	2.644621642	1.433171184
3.582188076	2.651202866	1.3096094
3.30006956	2.641151482	1.196791052
3.850789411	2.632093577	1.230642261
3.556486773	2.632181136	1.119428451
3.894213246	2.642395731	1.438432606
3.608855576	2.653841977	1.316375958
3.314934424	2.63640475	1.199242948
3.876444966	2.632216937	1.236254636
3.584070876	2.635615986	1.125560337
3.915782474	2.639523036	1.443401843
3.631699453	2.653511917	1.321732864
3.333575706	2.634574489	1.203057047
3.901335613	2.631666815	1.241611901
3.602316032	2.632042858	1.12874883
3.962004346	2.653037845	1.457432423
3.658457116	2.655885121	1.328499422
3.368127731	2.645134722	1.212592123
3.93911129	2.639600632	1.251050894
3.623710854	2.630660883	1.132918531
3.988438606	2.65305223	1.464155466
3.67670385	2.651944851	1.332164631
3.388363548	2.644260288	1.216951011
3.97214215	2.644112698	1.258959236
3.641199813	2.626336442	1.135861808
4.017304421	2.654510995	1.471755418
3.695740614	2.64847672	1.336111771
3.411666976	2.645644991	1.222399593
3.151831729	2.638940776	1.121636974
3.997172811	2.643113531	1.264316503
3.666576057	2.627576533	1.141257816
3.971988935	2.628154775	1.067832988
4.052612004	2.660015276	1.481693776
3.711664254	2.642690523	1.338931188
3.433486367	2.645736868	1.227303385
3.168812086	2.636663302	1.124795781
4.024658894	2.643578052	1.270439092
3.704629892	2.637682298	1.150578196
3.993079707	2.624531603	1.071333446
4.075974518	2.657493453	1.487247501
3.737769708	2.644034541	1.3454157
3.457629987	2.647474424	1.233024475
3.181347221	2.630617778	1.126375185
4.052185217	2.643898603	1.27656168
3.744363066	2.648698669	1.160389122
4.020722416	2.625071265	1.07658402
4.096148599	2.652773673	1.491632134
3.755283425	2.639174737	1.348798978
3.487942573	2.65374967	1.240924953
3.198347083	2.628195173	1.129533992
4.072448549	2.63934233	1.280388299
3.761196301	2.643330274	1.163087183
4.064779492	2.636084689	1.086210053
4.133222442	2.658820182	1.502155098
3.783815575	2.641921978	1.356129511
3.506045632	2.650579597	1.244466543
3.21536206	2.625692851	1.1326928
4.099226144	2.638873534	1.28625578
3.778826735	2.638438549	1.166030461
4.083511474	2.630471072	1.089054029
4.155059616	2.654880541	1.507124334
3.814764967	2.646159396	1.364305721
3.531085372	2.652524184	1.250460027
3.243628344	2.632229129	1.139800058
4.13499994	2.643994728	1.294929565
3.797258903	2.634016096	1.169218953
4.105535266	2.626870935	1.092773238
4.180141372	2.65288164	1.51326266
3.842615552	2.648053698	1.371354208
3.55231484	2.651462648	1.255091426
3.28097634	2.645884008	1.150066125
4.15778394	2.640627279	1.299521507
3.818094262	2.63115559	1.173143323
4.125928008	2.622113772	1.096054831
4.206867927	2.651773718	1.519985706
3.868138619	2.648176123	1.377556906
3.569706615	2.647429566	1.25836062
3.298865194	2.643648667	1.153488149
4.1789507	2.636112823	1.303603235
3.846947331	2.633668389	1.179520425
4.160357612	2.626110414	1.103055518
4.236058961	2.652049108	1.527585658
3.892905109	2.647627211	1.383477557
3.595627479	2.64959355	1.2646265
3.322053487	2.645535007	1.158752903
4.216516097	2.641760727	1.312787119
3.875049799	2.635483631	1.185652311
4.192370335	2.628365197	1.109399956
4.27584837	2.658734859	1.538985524
3.928039163	2.65393383	1.393063533
3.613831826	2.645939257	1.268168091
3.339989054	2.643113492	1.162174927
4.241019696	2.639028944	1.317889274
3.903199177	2.637151104	1.191784195
4.213667317	2.623743281	1.112900415
4.304326919	2.658166482	1.546293172
3.953688615	2.653633202	1.399266229
3.633603441	2.64333004	1.272254583
3.35642389	2.639413709	1.165070518
4.282819337	2.646846712	1.328348699
3.922540837	2.632727749	1.19521802
3.627076602	2.634421471	1.088075159
4.239955087	2.622094701	1.117713374
4.327950508	2.654448113	1.551846893
3.9809695	2.65426459	1.406032785
3.672108462	2.654151506	1.282879351
3.375908216	2.638014076	1.169018969
4.309049022	2.644822326	1.333961073
3.943505352	2.62928578	1.19914239
3.650902252	2.634654729	1.092792627
4.271260361	2.623373427	1.123839059
4.354042402	2.652102548	1.55827764
4.012291272	2.657402511	1.414208996
3.691175604	2.650730638	1.286693453
3.422847039	2.657820228	1.182443844
4.358423638	2.656753293	1.346716466
3.987924721	2.641264286	1.210179623
3.669234898	2.63080277	1.095858929
4.326771535	2.639220256	1.136309068
4.405526077	2.664965928	1.573769838
4.038058547	2.656681659	1.420411692
3.7094728	2.646658493	1.290235041
3.446260983	2.659093273	1.187708485
4.387232955	2.655887618	1.353094164
4.006537851	2.635943898	1.213368231
3.693910355	2.631373798	1.100812312
4.366562568	2.645145294	1.144622485
4.426798022	2.659316811	1.578446659
4.066268361	2.657402311	1.427460179
3.72699458	2.64194292	1.293504236
3.459762086	2.652616876	1.18955122
4.407790819	2.649888068	1.356920783
4.025967515	2.63106462	1.216802057
3.721796518	2.634063496	1.106709002
4.378002035	2.633748276	1.145497601
4.457110531	2.65895174	1.58633891
4.088887436	2.654317834	1.43253504
3.750028986	2.641022571	1.298680422
3.479394962	2.650759478	1.193499671
4.434994584	2.647752786	1.362788264
4.058414553	2.634536459	1.224160248
3.752913421	2.638842533	1.113549348
4.396951443	2.626810148	1.148341695
4.487462345	2.658425477	1.594231161
4.126846071	2.660998285	1.442966806
3.780187971	2.644950055	1.306308505
3.500587229	2.649971256	1.197974668
4.457236594	2.642516626	1.3671251
4.077070218	2.628902653	1.227348858
3.777721223	2.639003236	1.118502614
4.424291505	2.624759118	1.153373403
4.511258333	2.653858706	1.599785001
4.151149225	2.658673692	1.448605643
3.80645589	2.645971514	1.312574385
3.527974936	2.653717146	1.204555497
4.489486211	2.643055179	1.374523342
4.108790945	2.631544855	1.234461719
3.805758577	2.641252792	1.12439942
4.472677965	2.634947286	1.163874547
4.548280565	2.656888872	1.610015662
4.175476413	2.656225127	1.454244478
3.830390327	2.645216104	1.318023082
3.546145515	2.650389259	1.207977519
4.52094688	2.642932816	1.381666364
4.131568785	2.628293139	1.238876637
3.821044518	2.634528827	1.126522298
4.498428236	2.631559658	1.168468756
4.58122748	2.657317384	1.618784816
4.204694704	2.656727248	1.4615749
3.848008743	2.639984202	1.321292279
3.562779859	2.645824323	1.210873112
4.545758761	2.638758974	1.386768523
4.164199719	2.631140659	1.246234831
3.845144023	2.633777062	1.131239652
4.545293099	2.640292011	1.178532402
4.619191889	2.660432359	1.629307779
4.230704073	2.655034734	1.46777748
3.880737103	2.644964775	1.32973766
3.590287419	2.649201211	1.217453942
4.571424881	2.634940114	1.392125788
4.187032805	2.627628383	1.250649862
3.868471227	2.632355167	1.135721206
4.565205453	2.63316021	1.181595245
4.646425775	2.657167681	1.636030707
4.251043089	2.649655083	1.472006666
3.914328945	2.650308748	1.338455437
3.616292852	2.651293583	1.223508226
4.624803581	2.64683824	1.405901613
4.209883736	2.624000728	1.255064779
3.89746153	2.634624525	1.141853926
4.593584291	2.630780539	1.186845819
4.208198758	2.621625119	1.059737614
4.676178053	2.655177311	1.643630656
4.29667756	2.659830572	1.484975803
3.942400622	2.651712414	1.345266219
3.628308741	2.643026525	1.224824415
4.661485097	2.648878926	1.414575283
4.257480342	2.635565824	1.266837888
3.92004738	2.632406418	1.146099564
4.631321775	2.633556881	1.19450287
4.235349	2.620536416	1.064545087
4.71845754	2.660073854	1.655615241
4.326885117	2.660203478	1.492588268
3.957718022	2.644415766	1.347718118
3.65671987	2.646589165	1.23166846
4.685590271	2.643592721	1.419422333
4.288670144	2.63670846	1.273705536
3.94508197	2.631692312	1.151052946
4.662321322	2.632288649	1.200409691
4.265031474	2.620841988	1.069979718
4.75413449	2.660999239	1.665261297
4.355497376	2.65941576	1.499636754
3.985853464	2.645563457	1.354528899
3.676570967	2.643806382	1.235617027
4.709706646	2.638183213	1.424269383
4.333972633	2.646272991	1.284742885
3.970958845	2.631386182	1.156242127
4.692505719	2.63037761	1.20609788
4.306441501	2.628121553	1.078340579
4.782338191	2.657549828	1.672276528
4.380864005	2.656487512	1.505557404
4.019656765	2.650270781	1.363246678
3.7035042	2.645974201	1.241934527
4.740593871	2.636410252	1.431157295
4.363623632	2.646033276	1.291119985
4.009046752	2.638960548	1.164969322
4.72783782	2.63115303	1.213098567
4.324520109	2.620979659	1.080848746
4.82563783	2.662267627	1.684553416
4.414472494	2.658378166	1.514297589
4.058354986	2.657958363	1.373599049
3.738351896	2.653585667	1.250884519
4.790136636	2.644754293	1.443657582
4.385008876	2.640635366	1.295044355
4.042337876	2.643135096	1.172281381
4.765780857	2.633152202	1.220755619
4.366054568	2.627871556	1.089209607
4.851396767	2.657097426	1.690691742
4.434959107	2.652208823	1.518526661
4.07616887	2.651791239	1.376868245
3.763820122	2.654335998	1.256675589
4.826208515	2.645382817	1.452076258
4.417218539	2.641599414	1.302157219
4.059392411	2.636543415	1.17487597
4.799502233	2.632596669	1.227318804
4.400117692	2.630017731	1.095689346
4.904054794	2.666412044	1.706183943
4.476896928	2.658675882	1.530086146
4.096407184	2.64710662	1.380954739
3.783797489	2.651080013	1.260624157
4.881863385	2.65644424	1.4663623
4.442806588	2.63843046	1.307308012
4.071545252	2.626710948	1.176055309
4.832408466	2.631392116	1.233663243
4.427507233	2.627986095	1.100496818
4.934934469	2.663618266	1.714076194
4.513131504	2.661498699	1.539672124
4.120703567	2.64492113	1.38640332
3.809332554	2.651584196	1.266415227
4.909557246	2.652023892	1.472229782
4.473426925	2.638084123	1.313930329
4.096766974	2.625217905	1.181008575
3.804974426	2.642246129	1.077145165
4.873935697	2.634650458	1.242195408
4.463349905	2.630776932	1.107394506
4.85225611	2.622931401	1.023689072
4.956569942	2.65569197	1.718753011
4.54362947	2.660730421	1.547284472
4.149081863	2.645197574	1.393214105
3.830938648	2.649213108	1.270890222
4.938121582	2.647915329	1.478352371
4.515798661	2.644433038	1.323986585
4.129396082	2.628290611	1.188084718
3.833907959	2.644940942	1.083033629
4.906930187	2.633065026	1.248539846
4.486591908	2.625962687	1.111156872
4.903598623	2.631277211	1.032812875
4.992557492	2.655291999	1.728399071
4.57250593	2.658835343	1.554332958
4.168558282	2.639662573	1.397028205
3.850975876	2.645641883	1.274838791
4.970120827	2.645473716	1.485495391
4.53813774	2.638850753	1.328156287
4.166189614	2.633784239	1.196340202
3.851645531	2.639773733	1.085751362
4.943405843	2.633136548	1.255759399
4.506463866	2.619064881	1.114083103
4.938549174	2.630549706	1.038469593
5.022668741	2.651570775	1.735999021
4.602244725	2.657267823	1.561663377
4.21573198	2.651449649	1.410104869
3.873417481	2.643603749	1.279576886
4.994457073	2.638795331	1.49034244
4.563003334	2.634610495	1.333061749
4.186594939	2.628741447	1.199878329
3.86938758	2.634522896	1.088469214
4.977339745	2.631640636	1.262322587
4.560215821	2.631621532	1.125370316
4.977887377	2.631930471	1.04503874
5.087534028	2.665888218	1.755583438
4.632848727	2.656019979	1.569275841
4.246695796	2.652776595	1.417732951
3.904666206	2.647408347	1.287210691
5.059901704	2.653547837	1.50743467
4.604706278	2.639885732	1.342872673
4.227623674	2.63645407	1.209313152
3.891974235	2.632461923	1.092545815
5.029454763	2.639483736	1.273480097
4.592874174	2.631717927	1.131431871
5.013797871	2.631266968	1.050877969
5.119444867	2.662622915	1.763767989
4.671826209	2.659355454	1.579707607
4.276071945	2.652924083	1.424816129
3.93757497	2.652123523	1.295370924
5.109187531	2.659440869	1.519679849
4.632161563	2.636776942	1.348513897
4.256345933	2.63626384	1.215209957
3.919435543	2.633546465	1.097981401
5.06608714	2.638917032	1.280699531
4.622175838	2.629704286	1.136657409
5.046263013	2.62859067	1.05598728
5.136087622	2.651290867	1.766691119
4.699174329	2.655867588	1.58619212
4.307946443	2.654430324	1.432716723
3.96253075	2.651296934	1.300898778
5.143952971	2.657511541	1.527588194
4.663016931	2.635432178	1.355136329
4.297522913	2.643559722	1.224644779
3.939648638	2.629620452	1.101378627
5.095829012	2.634565353	1.286168854
4.648102693	2.625611608	1.141046932
5.067404504	2.619869671	1.058724443
5.166326681	2.646858556	1.774290952
4.733237976	2.655992901	1.594932304
4.331663408	2.650743336	1.43789291
3.992339476	2.65354623	1.308006154
5.180474864	2.656276157	1.536006869
4.705743875	2.640564727	1.365192587
4.337954809	2.650120568	1.2338438
3.967180421	2.630439491	1.106814212
5.14035072	2.637628891	1.295357387
4.680870979	2.62521128	1.147108488
5.13140392	2.633038044	1.070402902
5.226422672	2.657436025	1.792121561
4.764832308	2.654533161	1.602826583
4.372664974	2.65742969	1.448790073
4.016563188	2.651916258	1.313270793
5.214452611	2.653526012	1.543660107
4.745157995	2.643572441	1.374267635
4.360188912	2.645368686	1.237853642
4.002888248	2.636471832	1.114514536
5.188416555	2.642215117	1.305420918
4.712825559	2.624158832	1.152961066
5.160484838	2.627991146	1.074782292
5.276386597	2.662499487	1.806444557
4.802338701	2.656155156	1.612694489
4.39974406	2.655437356	1.45505607
4.046461447	2.65386641	1.320378053
5.241557016	2.647105312	1.549272481
4.788876289	2.648708949	1.384569222
4.386596514	2.643012907	1.243042823
4.03133499	2.637510305	1.12017662
5.228720237	2.642570031	1.313515584
4.733692016	2.616784438	1.15609639
5.22819366	2.64230376	1.087190667
5.298211661	2.653150437	1.811121376
4.838217877	2.656648185	1.621998535
4.433453775	2.657260662	1.46350145
4.058625842	2.644072572	1.321694241
5.273857303	2.643142371	1.556415501
4.802078204	2.636803957	1.386040859
4.40719312	2.637026962	1.246580837
4.051658057	2.633091174	1.123573844
5.269947346	2.64313944	1.321829
4.793135809	2.630478569	1.168637685
5.251216449	2.633745027	1.090292733
5.364562601	2.665822571	1.830998096
4.872459831	2.656027493	1.630738603
4.465562481	2.657917846	1.471401926
4.0910169	2.647331945	1.329591259
5.335617812	2.653645847	1.572232189
4.863770891	2.651291125	1.401493008
4.435313011	2.635407164	1.252241729
4.077720534	2.632270051	1.128556436
5.294629438	2.63522009	1.325985711
4.834674145	2.634007199	1.176789572
4.426970925	2.628255573	1.048197977
5.288319097	2.632079359	1.096314471
5.405309072	2.66542377	1.842105777
4.915181613	2.65978768	1.64229809
4.48777703	2.652527998	1.476033208
4.12752373	2.653025595	1.338804468
5.392289779	2.661227166	1.586518231
4.892345097	2.647430024	1.407379563
4.476018295	2.641047193	1.26144075
4.097256267	2.627107832	1.131727166
5.33593483	2.635383746	1.33429901
4.868537094	2.63311859	1.183060218
4.45358391	2.625609801	1.052587141
5.316644894	2.625856698	1.100511354
5.441808136	2.662698359	1.851751834
4.947829495	2.657862228	1.650474414
4.519958167	2.652871142	1.483933802
4.151093684	2.65021392	1.343805896
5.40998106	2.649349357	1.589324418
4.920941012	2.643418415	1.413266118
4.513446024	2.644496858	1.269696232
4.12501383	2.627082369	1.137162633
5.371157491	2.632312674	1.341081063
4.909333037	2.635747553	1.191003015
4.484450517	2.625300524	1.057973732
5.354694164	2.624244245	1.1067156
5.475760671	2.658521097	1.860520991
4.988131327	2.659824356	1.661188113
4.554677725	2.654495282	1.492651581
4.175499251	2.647798754	1.349070534
5.454610094	2.650487902	1.600038949
4.951269053	2.640168485	1.419643335
4.543377149	2.643343354	1.275828953
4.151163704	2.625870082	1.142145225
5.437124513	2.643985769	1.355520052
4.940697405	2.633091664	1.196646504
4.511968536	2.622856669	1.062562337
5.404277469	2.628012786	1.115291991
5.531277472	2.664536105	1.876597677
5.02170714	2.657973374	1.66964625
4.586117819	2.654003187	1.500279662
4.206459619	2.649372103	1.356441008
5.494942147	2.64927814	1.609477942
4.991048734	2.641745986	1.428718384
4.571660558	2.641058766	1.281489845
4.186417081	2.630221557	1.149619169
5.495303638	2.651462112	1.367990177
4.969498087	2.628896238	1.201663067
4.538664732	2.619778835	1.066951386
5.475186655	2.641755937	1.128247659
5.586019203	2.669823087	1.892382177
5.06211341	2.659511193	1.680359948
4.606752528	2.647111423	1.504366157
4.237468823	2.650780241	1.363811598
5.535317394	2.647845572	1.61891705
5.024876317	2.639947876	1.436076576
4.599129761	2.638141866	1.286914824
4.234130429	2.642115887	1.160490221
5.516614003	2.640910313	1.371271769
5.015635875	2.633640972	1.210859947
4.573035867	2.620946977	1.073136082
5.504549793	2.635134933	1.132627169
5.614922343	2.662506658	1.899397524
5.108530936	2.66393117	1.693047273
4.657473506	2.657283234	1.518260118
4.270984483	2.653550235	1.371971832
5.583596969	2.649920972	1.630652012
5.059599657	2.638415288	1.443680102
4.627468003	2.635562288	1.292575833
4.26622614	2.643993317	1.167058179
5.559065231	2.640299735	1.379803935
5.045372168	2.629540058	1.216085486
4.605753101	2.620959473	1.078921667
5.538364028	2.630467651	1.137918988
5.659409265	2.662365536	1.911674294
5.1447978	2.662799004	1.702351317
4.678162068	2.650095517	1.522346614
4.297167543	2.651579757	1.377762901
5.635440703	2.653372633	1.643407408
5.114163016	2.646943174	1.456924852
4.654987749	2.632354925	1.29800081
4.297542916	2.645187685	1.173399635
5.612156893	2.644444531	1.390961331
5.08729049	2.631571434	1.224237373
4.645338941	2.624651937	1.086303346
5.597994523	2.637771015	1.14850251
5.176838706	2.65927755	1.710245596
4.714783898	2.651767624	1.531609295
4.334072016	2.656026791	1.38697611
5.692613379	2.658986133	1.657693448
5.164513788	2.652946348	1.468943292
4.710494264	2.644703378	1.311209676
4.318103891	2.639610735	1.176796862
5.646762349	2.639610594	1.397524634
5.130138441	2.633817064	1.232598236
4.675589045	2.622852622	1.091490498
5.634563095	2.633907913	1.154341739
5.211470517	2.656891591	1.718985665
4.744738823	2.649486938	1.538692471
4.361978779	2.654754877	1.393293725
5.732327418	2.656143272	1.666877332
5.189038841	2.645455424	1.473603424
4.751689709	2.648692116	1.320408581
4.358653148	2.646063432	1.185629674
5.682275998	2.634999684	1.404306571
5.195701758	2.647367227	1.246393611
4.72042537	2.62899762	1.100069274
5.672944428	2.630672206	1.160545985
5.129892196	2.61293326	1.010351893
5.240143547	2.65128593	1.725752223
4.803335679	2.662909164	1.555038331
4.380835864	2.647847447	1.396715746
5.764170117	2.64944742	1.673765245
5.230001694	2.646154795	1.482923802
4.784451103	2.647747449	1.327248927
4.387604041	2.645251274	1.191291755
5.7373169	2.639166734	1.415901581
5.203799322	2.631414671	1.246393611
4.748192132	2.625408662	1.104657877
5.709571784	2.626404008	1.166385096
5.179198524	2.618066739	1.018476243
5.287693864	2.655000658	1.738721476
4.829184549	2.657903006	1.560759423
4.422852663	2.654751123	1.407508359
5.796905737	2.642981983	1.680908267
5.262354085	2.642277156	1.489791567
4.818954631	2.647562569	1.334560869
4.411576976	2.641284357	1.195594854
5.787997899	2.640995239	1.42640261
5.23544672	2.627279718	1.252037216
4.779417177	2.623560347	1.11004447
5.782900648	2.638669535	1.179705898
5.24090958	2.629105044	1.029020544
5.365371963	2.673424514	1.761558637
4.870246189	2.661067396	1.571384308
4.465781384	2.661915381	1.418564069
5.854323696	2.647496517	1.695194426
5.301672864	2.641684816	1.498621398
4.847529889	2.643933208	1.340221877
4.443101806	2.641675012	1.201936313
5.8351878	2.640928404	1.436028642
5.272370123	2.625590847	1.258934906
4.823581932	2.628578204	1.118423691
5.823215525	2.635509951	1.186275045
5.273639242	2.625304082	1.033860559
5.392469817	2.666306716	1.767761219
4.919829626	2.668592156	1.584733364
4.485549867	2.655081824	1.422249423
5.945347995	2.666720374	1.719174567
5.364500939	2.652477573	1.514073545
4.895783037	2.650795633	1.351307748
4.461250154	2.633973723	1.204654163
5.879760641	2.639397538	1.444998423
5.340892856	2.639296558	1.273357322
4.861788868	2.63008577	1.125406374
5.855492192	2.628503818	1.191201846
5.330237757	2.633105423	1.043367622
5.4204353	2.659470137	1.774245845
4.932229541	2.655766632	1.586095569
4.511971877	2.652062705	1.428040493
5.968520088	2.655148743	1.723511401
5.399594053	2.649244775	1.521677071
4.916732264	2.642664093	1.354845879
4.505440718	2.641457296	1.214392846
5.948446966	2.648333805	1.459875027
5.354233415	2.625481986	1.274611407
4.894006993	2.628138353	1.130992404
5.892271467	2.623323589	1.197041074
5.363938842	2.629312137	1.048380491
5.446684432	2.651647338	1.780166614
4.968356641	2.655589852	1.595085738
4.547582286	2.654255863	1.436727154
5.996099882	2.645411577	1.729123775
5.439075773	2.647943057	1.530506904
4.947108346	2.639461067	1.360978481
4.550560867	2.649184279	1.224358027
5.999390481	2.648990125	1.470376173
5.431731271	2.642843396	1.291124155
4.92798825	2.626939751	1.136977544
5.967749729	2.63501943	1.210726778
5.400323862	2.626629299	1.053911922
5.492806493	2.653286537	1.792572008
4.986680312	2.645746087	1.598354935
4.57490167	2.65141765	1.442781554
6.053794145	2.648707637	1.743409815
5.48558349	2.649797405	1.541298921
4.976652598	2.63564143	1.366875288
4.572159351	2.643010243	1.227981635
6.036985727	2.643487927	1.477595608
5.465353239	2.638495976	1.297185712
4.976732176	2.633348305	1.146354308
6.017235915	2.634839724	1.219120663
5.468676343	2.63915889	1.065666314
5.993435511	2.624792116	0.966535727
5.553697422	2.661716721	1.809770213
5.028827017	2.64836843	1.609252212
4.604754717	2.649880451	1.449625598
6.106243019	2.649365429	1.756165211
5.526033748	2.648458253	1.550374085
5.005359307	2.631213035	1.37253618
4.594607318	2.637213359	1.231831855
6.090714586	2.644775495	1.488753121
5.511346088	2.639881444	1.306173614
5.010813629	2.631736627	1.15233945
6.055052307	2.629289957	1.2251424
5.486519194	2.627047808	1.067567702
6.055903248	2.630036434	0.975303809
5.585232135	2.655789694	1.817382679
5.104292012	2.668140379	1.630774257
4.639667229	2.651056425	1.458049046
6.156087707	2.648579662	1.768155282
5.564776255	2.646063024	1.558958703
5.06682499	2.643715621	1.387160297
4.626371018	2.636608719	1.238173313
6.13285614	2.640741387	1.497066536
5.539733921	2.632614353	1.310981203
5.044931592	2.629940342	1.158324591
6.116370414	2.633642744	1.23590843
5.522132635	2.623304866	1.072926279
6.091201608	2.623183474	0.979687909
5.628930285	2.655425305	1.828942166
5.130389352	2.66177346	1.63649535
4.672952049	2.651091049	1.465946067
6.200648386	2.645236207	1.778614822
5.601801953	2.642627449	1.567052657
5.098211096	2.640224527	1.393528816
4.655631085	2.634394724	1.243835395
6.175927835	2.636856602	1.505598703
5.579628129	2.630619524	1.318505935
5.071252587	2.623906569	1.1625142
4.649042417	2.626490336	1.034734866
6.149739986	2.62567556	1.241017739
5.573811498	2.626926081	1.081396336
6.128333736	2.616915428	0.984364133
5.670940698	2.654003879	1.839937793
5.169326739	2.6618788	1.646302936
4.697033671	2.645738078	1.47094749
6.22743574	2.634110823	1.783972088
5.657298221	2.647619124	1.580297407
5.139994898	2.641896307	1.402727838
4.686619452	2.632980109	1.249950357
6.24329422	2.643002865	1.52003769
5.636391699	2.636276138	1.330002119
5.103685954	2.620869401	1.168100348
4.663072026	2.615576792	1.036066553
6.203942898	2.626344204	1.25032405
5.612180711	2.623997335	1.087273474
6.193724995	2.622401015	0.993570666
5.719086376	2.655177966	1.852907047
5.200601606	2.657829128	1.653658507
4.757333209	2.660510221	1.487267959
6.323763422	2.652013433	1.809227767
5.709359644	2.650662064	1.592561179
5.170583307	2.637595853	1.408860443
4.707434745	2.625706315	1.253347582
6.291861615	2.640830047	1.529882471
5.684371274	2.637493263	1.339408089
5.178927183	2.639460759	1.183462251
4.731971543	2.635171249	1.049573916
6.266366804	2.630129285	1.261272589
5.672921998	2.631218422	1.097472067
6.248261389	2.622914926	1.001023512
5.777749922	2.660897364	1.869259464
5.235332845	2.655353636	1.66210389
4.790776563	2.659951516	1.495164978
6.364904182	2.646334591	1.818666759
5.762373595	2.653815735	1.605070051
5.23760759	2.651567466	1.424899695
4.763185283	2.637675714	1.266030499
6.361194632	2.647006227	1.544759075
5.72263988	2.63394308	1.346514753
5.206237965	2.633289413	1.187851301
4.757217349	2.630141562	1.053378722
6.320701974	2.630156468	1.270578783
5.709600958	2.626975736	1.103003498
6.307425344	2.625019155	1.00920711
5.832138425	2.664288217	1.884202347
5.299318303	2.667398209	1.679811952
4.822571251	2.658281013	1.502535568
6.452554992	2.659588378	1.841371361
5.796941871	2.64820952	1.612428243
5.273505166	2.649446686	1.432447551
4.816492282	2.647919864	1.278034038
6.394542973	2.637896972	1.550884764
5.779620832	2.638711892	1.358010939
5.262459194	2.64148197	1.19882404
4.789361819	2.628760825	1.058705589
6.387820521	2.635123981	1.282439748
5.749890841	2.624168432	1.109226343
6.351113886	2.620370711	1.014906386
5.863880301	2.657074536	1.891814695
5.329856754	2.662306581	1.686895131
4.855246895	2.656903468	1.510169256
6.475005305	2.645631256	1.845453087
5.832413089	2.642816071	1.620031768
5.296393466	2.640626482	1.436457394
4.848532591	2.646195833	1.284375496
6.473053358	2.647074946	1.567949096
5.808177823	2.63024619	1.362818411
5.285448969	2.632751723	1.202215662
4.816369583	2.624388842	1.062890908
6.434097323	2.63114465	1.290103714
5.792909021	2.622357103	1.115967865
6.401242452	2.618100308	1.021628597
5.924511161	2.662670212	1.908731089
5.362999952	2.658334461	1.694795725
4.895588419	2.65949505	1.520172106
6.542240475	2.649710063	1.862290324
5.898854696	2.651139407	1.636219795
5.327987182	2.636000193	1.442825912
4.879750614	2.643836115	1.290490572
6.544445363	2.652863366	1.5832632
5.85725485	2.630845732	1.372433357
5.335666431	2.637365665	1.211791863
4.87016394	2.634355534	1.072973866
6.494988559	2.632815653	1.300687352
5.819796113	2.613044507	1.119597789
6.466085595	2.621493599	1.030688981
5.967704845	2.660106328	1.920008646
5.387534595	2.649937178	1.699971911
4.924103667	2.655453051	1.526489721
6.597896439	2.648717985	1.875811044
5.953004689	2.653553624	1.648973996
5.388388814	2.64533702	1.456978199
4.915289035	2.64361662	1.297737903
6.567945598	2.63895726	1.586982409
5.90370958	2.629974797	1.38142126
5.380683315	2.639107041	1.220171085
4.897251866	2.629619374	1.077159187
6.563248694	2.637070203	1.31273071
5.898867146	2.626830714	1.133253571
6.535598272	2.626357972	1.040479997
5.415527048	2.643102377	1.706237792
4.966248597	2.658545899	1.537019118
6.666184613	2.652413721	1.892903271
6.010771788	2.657228442	1.66270941
5.411331347	2.636027979	1.460988042
4.948294274	2.641827322	1.304305859
6.636748549	2.64298265	1.601640146
5.973470987	2.639118717	1.395843794
5.412544074	2.63416472	1.225557676
4.956411171	2.641827091	1.088383575
6.603278972	2.629653729	1.319117349
5.960056627	2.632197731	1.143452163
6.574872661	2.618740463	1.045448522
5.486826598	2.657089022	1.726125239
4.99227191	2.652803833	1.542546973
6.717466703	2.648975762	1.905148449
6.041092442	2.648506755	1.668841179
5.453515971	2.635906757	1.470187065
4.990801235	2.644877606	1.313365168
6.707452975	2.647326842	1.616735499
6.031699442	2.642757158	1.407548956
5.476191566	2.644391432	1.238126508
4.981848345	2.635790953	1.09218838
6.675334448	2.634650075	1.331890625
5.992464057	2.624569118	1.148119327
5.428800907	2.619754634	0.998552846
6.599438874	2.605094821	1.048078993
5.520102945	2.652327504	1.734025832
5.042199319	2.659529315	1.555445419
6.779597156	2.649471494	1.920454923
6.074972505	2.641169882	1.675954158
5.506264732	2.640594072	1.482216473
5.029063171	2.645424192	1.321291991
6.752801438	2.641309625	1.625705282
6.073861182	2.639048329	1.415491751
5.50371989	2.636892802	1.242515672
5.015117365	2.633731569	1.097705504
6.710855476	2.624902647	1.337364952
6.060113411	2.632068959	1.159527895
5.464397046	2.616294053	1.003619122
6.705977078	2.623399213	1.063715438
5.570772673	2.655667798	1.747374892
5.092214716	2.665973147	1.568343865
6.835481836	2.647166306	1.933975642
6.14269305	2.648234275	1.692387514
5.544176028	2.637884105	1.490236159
5.058740874	2.641252872	1.326953957
6.815462277	2.64173904	1.638831655
6.115158727	2.634718496	1.423225572
5.526829177	2.627146725	1.245907179
5.045808403	2.630131449	1.102651854
6.778466075	2.627398998	1.349225919
6.093488989	2.624373501	1.164367911
5.535668059	2.629571775	1.015222713
6.803464784	2.637498407	1.077890496
5.608466982	2.65255111	1.756637572
5.132043696	2.666796889	1.578083502
6.907664653	2.650778446	1.952088419
6.172183002	2.638521933	1.69827407
5.607606983	2.646996464	1.505095956
5.107465153	2.646783674	1.337598628
6.89822881	2.649505805	1.656771104
6.158285257	2.63092851	1.431377343
5.56765565	2.625643125	1.253288856
5.083500162	2.629976641	1.109120149
6.866346885	2.637260365	1.365101259
6.153142906	2.62771571	1.174220797
5.579405849	2.629398989	1.021759794
6.849386714	2.631157768	1.083881956
5.670583736	2.660671905	1.773528334
5.16935332	2.666074404	1.587033379
6.238266697	2.644165236	1.714216764
5.656184747	2.648737988	1.515946147
5.14327885	2.645357587	1.344846076
6.949187299	2.644641886	1.667053383
6.2185544	2.634145711	1.443500571
5.625388678	2.631802897	1.264461151
5.124731757	2.631408676	1.116349359
6.906567213	2.628422337	1.371487896
6.193827137	2.622651348	1.180443641
5.622301371	2.628564712	1.028133558
6.897182489	2.625264182	1.090165833
5.717101513	2.661127647	1.785515306
5.203271461	2.663389877	1.594930398
6.276736582	2.637784195	1.722556167
5.691605432	2.644064726	1.523258088
5.186939173	2.647722029	1.354131766
6.993788931	2.637080272	1.675804415
6.286113746	2.640046855	1.457296064
5.676989403	2.634745318	1.274236908
5.173017485	2.636178488	1.125100632
6.996477174	2.63809396	1.387728254
6.267231784	2.631087501	1.19288933
5.649133513	2.620020089	1.031565592
6.949634453	2.620847145	1.097180228
5.746204045	2.653255763	1.792053697
5.250123113	2.667076042	1.606775867
6.334913499	2.639394523	1.736291462
5.731463378	2.641232632	1.531749485
5.224579699	2.646762109	1.36183209
7.092340729	2.649416131	1.697462957
6.330295038	2.635784748	1.46565681
5.719759409	2.633298074	1.282017579
5.196849854	2.628270543	1.12852492
7.043221797	2.631067471	1.39539222
6.30801013	2.62547252	1.199112291
5.713608918	2.628653637	1.04186158
7.031778464	2.627212133	1.108871083
5.795431767	2.654445548	1.804857966
5.280678641	2.662248178	1.613619912
6.398534778	2.642893173	1.751498395
5.780195079	2.642220579	1.542599555
5.28140795	2.655221295	1.374515123
7.126973798	2.637465722	1.703807393
6.374508601	2.631276169	1.474017671
5.770596368	2.6352763	1.291593782
5.24963749	2.634773717	1.138227364
7.104742043	2.629238518	1.405975858
6.333334515	2.613245531	1.202396509
5.746776941	2.622580674	1.046437665
7.088048694	2.623482724	1.116470079
5.861364809	2.66292006	1.822838423
5.319881395	2.661574181	1.623096335
6.459545682	2.644923931	1.765969569
5.857308898	2.655775903	1.560997602
5.311318063	2.649876427	1.380177087
7.190001427	2.635739179	1.716933767
6.465817785	2.645779376	1.493247679
5.826853843	2.639393232	1.30236708
5.285817171	2.632661546	1.144315145
7.184779656	2.633824934	1.42020897
6.416987858	2.624752453	1.216743705
5.800633329	2.625685745	1.054772542
7.163866743	2.626584015	1.12713788
6.390706876	2.611529123	0.951706315
5.901964251	2.659550978	1.832918403
5.358265209	2.660255631	1.632309542
6.508950686	2.641865441	1.777252132
5.901766347	2.654135225	1.570668335
5.347355809	2.647398205	1.387424536
7.245747615	2.630985915	1.728310028
6.512871082	2.641735572	1.502235582
5.850119258	2.628331106	1.305758587
5.331713654	2.635136921	1.152495643
7.225172422	2.623514962	1.426595609
6.481601906	2.627998458	1.227460858
5.842861886	2.623232174	1.060982869
7.243489354	2.630595119	1.138390283
6.46204205	2.617572828	0.961129153
5.936449018	2.653209612	1.841091275
5.395825315	2.658300154	1.641259419
6.55479975	2.637080845	1.787553603
5.94715678	2.652642224	1.580574868
5.389546944	2.647729875	1.396257346
7.343769095	2.641105433	1.74974982
6.569940669	2.641440466	1.513522676
5.919019253	2.637491495	1.319324961
5.381201004	2.6390842	1.161437056
7.305352831	2.627289564	1.440828722
6.526190081	2.62279233	1.234375116
5.886030605	2.620945117	1.067356631
7.284106571	2.620079374	1.143505076
6.527038971	2.620619656	0.969596052
5.983264607	2.652140233	1.853078361
5.435157139	2.656986624	1.650735842
6.639402164	2.647480206	1.808401877
5.979262357	2.644998815	1.586943386
5.443172434	2.65337579	1.408034273
7.40515123	2.637552106	1.762438577
6.597090961	2.628873991	1.5179122
5.984444845	2.644669281	1.33209323
5.404279025	2.629865415	1.164671203
7.399516368	2.63554523	1.457798997
6.579957706	2.620981808	1.243018028
5.953607029	2.629178371	1.078142927
7.362934539	2.622949876	1.154611211
6.588432778	2.621826891	0.977516675
6.033652944	2.652357199	1.866155026
5.481475373	2.658824636	1.662318096
6.678147468	2.639213088	1.816741163
6.027394733	2.644210492	1.597557659
5.479345968	2.650235153	1.41528172
7.487745332	2.641111987	1.780159275
6.651511897	2.626941974	1.528572252
5.997018117	2.6282635	1.333090774
5.461830276	2.637177281	1.175324935
7.43816592	2.623624007	1.463820618
6.618200332	2.6127178	1.248722312
6.007733628	2.631085033	1.086477803
7.429720823	2.621082756	1.163817744
6.639758512	2.618683748	0.983935142
6.101738432	2.659979988	1.884680388
5.518293852	2.655801412	1.671004877
6.72683419	2.634621938	1.827778512
6.05864785	2.635785704	1.603690265
5.52433269	2.651111749	1.424793907
7.552006344	2.637754611	1.793504517
6.71235759	2.627195574	1.54069548
6.046393043	2.627819204	1.342267982
5.504425349	2.636950234	1.182744403
7.507442603	2.622189367	1.475864093
6.740840611	2.637258558	1.270329473
6.067356575	2.635041938	1.095793293
7.49563009	2.618503944	1.172878126
6.695739479	2.617053404	0.991036438
6.147847261	2.657664607	1.896394847
5.57255626	2.66089097	1.68495618
6.809898331	2.643086135	1.848136123
6.113105123	2.637202424	1.615955589
5.560581659	2.647549826	1.432041354
7.646748565	2.644552175	1.814069192
6.776913411	2.628514926	1.55365484
6.115618538	2.635628556	1.355834354
5.550616549	2.638172178	1.190924901
7.606514337	2.630637633	1.493746678
6.786551664	2.631163273	1.277416701
6.109844224	2.631243407	1.10200362
7.57842119	2.621366301	1.184568862
6.729602226	2.606516967	0.994860195
6.173658858	2.646372352	1.901843544
5.622542194	2.663607417	1.69759141
6.884028298	2.647585208	1.866041118
6.201579311	2.652833011	1.637184021
5.618877958	2.654190664	1.444950767
7.694521721	2.634672092	1.823476474
6.875314035	2.642443307	1.574347904
6.181344365	2.64149749	1.368602624
5.591539468	2.636622871	1.197963855
7.70384788	2.637865413	1.511264365
6.807464189	2.615275209	1.279836652
6.151457681	2.62682148	1.10805051
7.658492298	2.622783349	1.195821265
6.843925396	2.626678617	1.010564829
6.222482432	2.644732293	1.914375421
5.664738793	2.662348818	1.707857476
6.949190711	2.648201889	1.881493384
6.239211998	2.646316246	1.644967791
5.646398046	2.646032731	1.449933358
7.796829185	2.643006205	1.845791262
6.927255319	2.638043041	1.584380916
6.220998007	2.635901182	1.375585308
5.63339348	2.635263448	1.205193181
7.769636621	2.633788309	1.522577921
6.894619752	2.624512435	1.294702408
6.194918257	2.622938211	1.114424272
7.763001679	2.631992367	1.210873225
6.914915863	2.62961336	1.019851114
6.266033439	2.64057554	1.925272582
5.705231454	2.660040803	1.717597113
6.981770215	2.636115635	1.888115699
6.279550092	2.640723649	1.653459187
5.704833686	2.652101819	1.46284277
7.850229721	2.634284296	1.856511157
6.970999155	2.630241748	1.592532804
6.276033306	2.636538152	1.385959498
5.683306339	2.637391013	1.214134594
7.836404192	2.629644893	1.534073869
6.945032021	2.619336318	1.302653905
6.258425392	2.627213697	1.12439339
7.798237957	2.617291787	1.215111116
6.954469289	2.620261696	1.024494314
5.744012074	2.656699344	1.726810322
7.067913638	2.643893954	1.909209306
6.327985191	2.638273942	1.664073346
5.746554093	2.650087189	1.471449084
7.910132758	2.627412482	1.868762534
7.001019956	2.61706055	1.597549251
6.3121342	2.628950217	1.392144193
5.743094321	2.643752522	1.225168724
7.881758322	2.617987922	1.541372817
7.056371076	2.636628545	1.322013969
6.292870111	2.618993727	1.129132912
7.847538917	2.607077975	1.221541028
6.984749539	2.607227676	1.027771737
5.792470863	2.65757012	1.738919007
7.119625457	2.638367319	1.920982415
6.39711963	2.644089539	1.680112715
5.784772901	2.646220625	1.47914941
8.034026744	2.641225336	1.896109145
7.116311024	2.635302691	1.622004798
6.370890905	2.630514986	1.403316488
5.794044432	2.645694094	1.234300396
8.027055501	2.638933695	1.568196813
7.095832522	2.62659253	1.327891107
6.361977888	2.624885567	1.140082643
5.757800749	2.623923993	0.986900295
7.959813749	2.617289444	1.237761954
7.072621585	2.615334479	1.039516234
5.853281452	2.663762961	1.754713044
7.164999485	2.6302095	1.931038672
6.444767621	2.640662653	1.690490959
5.815925281	2.638924505	1.485037988
8.120963345	2.642226483	1.914704958
7.190464738	2.637706211	1.637054256
6.482314598	2.653272599	1.426059953
5.840588399	2.645322623	1.242480894
8.072512879	2.626462444	1.575495879
7.173212887	2.630241507	1.340855356
6.411091739	2.622161256	1.147436903
5.827947264	2.634328012	0.997533643
8.057173963	2.621938334	1.25164483
7.162468572	2.623607707	1.051533723
5.905391476	2.665638138	1.767874704
7.287832702	2.64995714	1.961943084
6.511361623	2.644647527	1.705822701
5.888833636	2.650249919	1.501571126
8.241419091	2.653484355	1.941176574
7.222420138	2.624317115	1.642488769
6.514032427	2.642951346	1.431247107
5.853154211	2.629402784	1.243432066
8.175058523	2.632118345	1.593925875
7.227537574	2.625034189	1.349498268
6.50047673	2.635469692	1.161982106
5.871164239	2.632199901	1.003543819
8.134861206	2.619646332	1.26245878
7.228220382	2.622569266	1.060000564
5.94435968	2.66130545	1.777087795
6.562715274	2.642079025	1.717144486
5.939629443	2.651227103	1.512442179
8.315531394	2.649217776	1.956709424
7.348215049	2.644533357	1.669243506
6.560293641	2.638310221	1.439626327
5.922172611	2.638602336	1.256368656
8.241177991	2.62552973	1.605239432
7.290238259	2.622518615	1.359696861
6.539655397	2.628021453	1.167538689
5.92525628	2.634648329	1.011403287
